# .PCD v0.7 - Point Cloud Data file format
VERSION 0.7
FIELDS x y z
SIZE 4 4 4
TYPE F F F
COUNT 1 1 1
WIDTH 251
HEIGHT 1
VIEWPOINT 0 0 0 1 0 0 0
POINTS 251
DATA ascii
0.33016 -0.01853 -0.03058 -295573344371368995056107082740720992256.00000
0.33169 -0.00469 -0.03106 -287571954065138014725530316055638966272.00000
0.33162 0.00376 -0.03034 -278230870039766634260110985528613011456.00000
0.33198 0.00651 -0.03084 -280899751189872742964516508536334712832.00000
0.33221 0.01210 -0.03119 -263557216011041571213509139482472873984.00000
0.33009 0.02033 -0.03244 -264855188813627259862289643828521467904.00000
0.33257 0.01778 -0.03196 -264860421675305001993259022219353260032.00000
0.33125 0.02598 -0.03049 -272835850497243308185693136422789185536.00000
0.33063 0.02861 -0.02979 -263494766471871927720273805895763230720.00000
0.33017 0.04003 -0.03089 -256822563596606655959259998376458977280.00000
0.33055 -0.04663 -0.02951 -307619797601723453581024617380532191232.00000
0.33218 -0.03768 -0.02929 -287582379223674291684128224942799978496.00000
0.33027 -0.03347 -0.02979 -306254122115880775656368977109690875904.00000
0.33370 -0.03220 -0.03006 -294244156940403286486544123574943219712.00000
0.33184 -0.02825 -0.03083 -295578597515456340838746885078804070400.00000
0.33448 -0.02620 -0.02987 -291575275790297177782138600567221518336.00000
0.33396 -0.02012 -0.03235 -291570022646209831999498798229138440192.00000
0.33652 -0.02098 -0.03178 -295573344371368995056107082740720992256.00000
0.33194 -0.01600 -0.02862 -292904463221262886351701559732999290880.00000
0.33395 -0.01353 -0.02697 -288901141496103723295093275221416738816.00000
0.33362 -0.00788 -0.03006 -295573344371368995056107082740720992256.00000
0.33501 -0.01098 -0.02815 -291570022646209831999498798229138440192.00000
0.33443 -0.00519 -0.03101 -290235642918385588602307308567031447552.00000
0.33660 -0.00551 -0.02987 -292899311489223558827413877131172642816.00000
0.33386 0.00075 -0.02968 -280894558893014208136887978040005492736.00000
0.33677 0.00338 -0.02954 -283558227463852178361994546604146688000.00000
0.33442 0.00928 -0.03027 -274227548314607471203502701017030459392.00000
0.33655 0.00634 -0.02913 -287561549189011341418602831115729240064.00000
0.33464 0.01504 -0.03069 -266210499988162471783358647053955629056.00000
0.33702 0.01221 -0.02979 -271558667164501362499097178009308758016.00000
0.33479 0.02087 -0.03121 -260851907653287304109022207211441487872.00000
0.33762 0.01822 -0.03085 -268858551103605630222238776234606592000.00000
0.33450 0.02374 -0.03099 -264839611923051655379404052339533807616.00000
0.33631 0.02693 -0.02958 -251484801296394438550448952361015574528.00000
0.33249 0.03184 -0.02882 -254153682446500547254854475368737275904.00000
0.33541 0.02963 -0.02857 -247481479571235275493840667849433022464.00000
0.33293 0.03801 -0.03043 -254153682446500547254854475368737275904.00000
0.33533 0.03566 -0.02925 -247481479571235275493840667849433022464.00000
0.33190 0.04355 -0.02993 -250150360721341384198246190857154723840.00000
0.33393 0.04424 -0.02872 -242143717271023058085029621833989619712.00000
0.33116 0.04617 -0.02938 -247481479571235275493840667849433022464.00000
0.33172 0.04977 -0.03099 -250145148142073245718947236413574217728.00000
0.33100 0.05578 -0.03142 -244791768386466216523909751014640582656.00000
0.33478 0.05477 -0.03215 -246136613837645944183039997458411159552.00000
0.33062 0.05883 -0.03166 -247460649536572325228315274022362284032.00000
0.33306 0.06024 -0.03114 -248795069829215775928847611578971848704.00000
0.33494 -0.05045 -0.03197 -307609392725596780274097132440622465024.00000
0.33918 -0.04996 -0.03265 -319603740445679457657695546591879888896.00000
0.33655 -0.04077 -0.03154 -302271630425384562865286086425179062272.00000
0.33873 -0.04184 -0.03015 -312947155025808997682908178456065867776.00000
0.33634 -0.03700 -0.03038 -299592324116742177202282654530296348672.00000
0.33951 -0.03519 -0.02965 -298257883541689122850079893026435497984.00000
0.33840 -0.03158 -0.03191 -280899751189872742964516508536334712832.00000
0.34103 -0.03273 -0.03106 -294244156940403286486544123574943219712.00000
0.33942 -0.02201 -0.03150 -292909716365350232134341362071082369024.00000
0.34185 -0.02278 -0.03034 -294244156940403286486544123574943219712.00000
0.33971 -0.01885 -0.03140 -290235622635975984950636884619780161536.00000
0.34132 -0.01586 -0.02868 -291564870914170504475211115627311792128.00000
0.33860 -0.00886 -0.02863 -287561508624192134115261983221226668032.00000
0.34123 -0.01258 -0.02816 -292899311489223558827413877131172642816.00000
0.34008 -0.00306 -0.03016 -286216683455422010107802160724707377152.00000
0.34288 -0.00345 -0.02949 -278215252584371822473884546145122779136.00000
0.34052 -0.00004 -0.03059 -286216683455422010107802160724707377152.00000
0.34370 0.00281 -0.03024 -279549693159424876826087307648983629824.00000
0.34035 0.00616 -0.03013 -288885564605528118812207683732429078528.00000
0.34343 0.00603 -0.02979 -276880812009318768121681784641261928448.00000
0.34001 0.01535 -0.02968 -274211930859212659417276261633540227072.00000
0.34253 0.01235 -0.02858 -270203396554785357881369022678377168896.00000
0.34015 0.02153 -0.03017 -263520788803393412813427730219163189248.00000
0.34318 0.01872 -0.02962 -271537837129838412233571784182238019584.00000
0.33978 0.02767 -0.03014 -256827776175874794438558952820039483392.00000
0.34350 0.02520 -0.03042 -262196753104467031768152453655212064768.00000
0.33870 0.03358 -0.02931 -251490013875662577029747906804596080640.00000
0.34192 0.03121 -0.02890 -250181656479359818725710341465889046528.00000
0.33972 0.03722 -0.03118 -250160785879877661156844099744315736064.00000
0.34266 0.03810 -0.03070 -248836770463360883763239247127615897600.00000
0.33675 0.04541 -0.02852 -247476266991967137014541713405852516352.00000
0.34135 0.04420 -0.02992 -242148909567881592912658152330318839808.00000
0.33832 0.05327 -0.03215 -248810707567020191366744474909713367040.00000
0.34130 0.05113 -0.03108 -252814029292179354423352759421295919104.00000
0.33664 0.05904 -0.03125 -250145148142073245718947236413574217728.00000
0.33992 0.05732 -0.03061 -248821112443146864673671959849623093248.00000
0.33423 0.06405 -0.02938 -254132852411837596989329081541666537472.00000
0.33630 0.06516 -0.02798 -243472945266807973957933428894269964288.00000
0.33302 0.06648 -0.02848 -247465862115840463707614228465942790144.00000
0.33481 0.06740 -0.02675 -242143717271023058085029621833989619712.00000
0.34192 -0.06018 -0.03391 -324967484512593952856319669036220678144.00000
0.34411 -0.06153 -0.03206 -322293390783219705672615191584918470656.00000
0.34086 -0.05476 -0.03134 -319640167653327616057776955855189573632.00000
0.34173 -0.05153 -0.03153 -312973177357330482776062102779465826304.00000
0.34483 -0.04948 -0.03002 -308943833300649834626299893944483315712.00000
0.34494 -0.04554 -0.02929 -312926365555965254720723632523497701376.00000
0.34477 -0.03841 -0.03217 -304930086416954394611093700545739751424.00000
0.34539 -0.04198 -0.02905 -311591924980912200368520871019636850688.00000
0.34472 -0.03459 -0.03138 -300916359815668558247557931094247473152.00000
0.34920 -0.03307 -0.03167 -299581878675796296592014321695884050432.00000
0.34642 -0.02827 -0.03230 -298247478665562449543152408086525771776.00000
0.35046 -0.02620 -0.03205 -294244156940403286486544123574943219712.00000
0.34498 -0.02040 -0.02939 -292909716365350232134341362071082369024.00000
0.34938 -0.01837 -0.02978 -296902633214382721884022161642755194880.00000
0.34600 -0.01057 -0.02951 -296892208055846444925424252755594182656.00000
0.34987 -0.01145 -0.02964 -294223326905740336221018729747872481280.00000
0.34768 -0.00425 -0.03109 -288895989764064395770805592619590090752.00000
0.35038 -0.00809 -0.02996 -295573384936188202359447930635223564288.00000
0.34937 0.00230 -0.03285 -280889346313746069657589023596424986624.00000
0.35128 -0.00128 -0.03060 -280899751189872742964516508536334712832.00000
0.34901 0.00575 -0.03232 -276886024588586906600980739084842434560.00000
0.35222 0.00912 -0.03144 -279560098035551550133014792588893356032.00000
0.34817 0.01252 -0.03125 -270203396554785357881369022678377168896.00000
0.35022 0.01597 -0.02916 -270203396554785357881369022678377168896.00000
0.34757 0.01918 -0.03067 -266200074829626194824760738166794616832.00000
0.35036 0.01942 -0.02944 -262196753104467031768152453655212064768.00000
0.34633 0.02899 -0.02977 -254174593610801912127061564984813158400.00000
0.35067 0.02641 -0.03018 -250186787928989542598327600120464408576.00000
0.34598 0.03566 -0.03002 -255498568462499482217325569707010424832.00000
0.34991 0.03679 -0.03022 -255493376165640947389697039210681204736.00000
0.34649 0.04289 -0.03157 -248815920146288329846043429353293873152.00000
0.34966 0.04394 -0.03081 -248810707567020191366744474909713367040.00000
0.34525 0.04941 -0.03108 -248810707567020191366744474909713367040.00000
0.34854 0.04705 -0.02997 -247465862115840463707614228465942790144.00000
0.34374 0.05577 -0.03045 -246152231293040755969266436841901391872.00000
0.34743 0.05385 -0.02981 -246147038996182221141637906345572171776.00000
0.34294 0.05891 -0.03012 -243498967598329459051087353217669922816.00000
0.34483 0.05961 -0.02796 -243478157846076112437232383337850470400.00000
0.34063 0.06845 -0.02955 -247481479571235275493840667849433022464.00000
0.34400 0.06671 -0.02851 -251489953028433766074736634962842222592.00000
0.33723 0.06896 -0.02580 -247481479571235275493840667849433022464.00000
0.34157 0.07244 -0.02716 -250155512453380711722533873458981371904.00000
0.33372 0.07280 -0.02282 -250139915280395503587977858022742425600.00000
0.33979 0.07881 -0.02681 -252798371271965335333785472143303114752.00000
0.34908 -0.07073 -0.03472 -328965593658484977433628999104222724096.00000
0.35239 -0.06845 -0.03259 -323627851640682363676488377036030607360.00000
0.34907 -0.06128 -0.03249 -330300054515947635437502184555334860800.00000
0.35289 -0.05949 -0.03113 -318295322202147888398646709411418996736.00000
0.34964 -0.04869 -0.03038 -314260806131018309072926394027358552064.00000
0.35209 -0.04991 -0.02843 -324936330731442743890548486058245357568.00000
0.34776 -0.04307 -0.02732 -303585281530593874255304301996471746560.00000
0.34970 -0.04055 -0.02888 -303585240965774666951963454101969174528.00000
0.35373 -0.03523 -0.03225 -291575235225477970478797752672718946304.00000
0.35457 -0.03919 -0.02900 -304919681540827721304166215605830025216.00000
0.35462 -0.03175 -0.03268 -290240794650424916126594991168858095616.00000
0.35908 -0.03364 -0.03270 -299581878675796296592014321695884050432.00000
0.35425 -0.02373 -0.03119 -287571954065138014725530316055638966272.00000
0.35981 -0.02576 -0.03243 -288906394640191069077733077559499816960.00000
0.35599 -0.01679 -0.03232 -295568192639329667531819400138894344192.00000
0.36154 -0.01435 -0.03308 -302229970356058662334235298771037585408.00000
0.35684 -0.00572 -0.03238 -290225217759849311643709399679870435328.00000
0.36060 -0.00626 -0.03154 -291554445755634227516613206740150779904.00000
0.35705 -0.00202 -0.03242 -286227108613958287066400069611868389376.00000
0.36046 -0.00239 -0.03120 -287561549189011341418602831115729240064.00000
0.35572 0.00547 -0.03070 -276896429464713579907908224024752160768.00000
0.35879 0.00907 -0.02918 -268889786014395253794691655001587056640.00000
0.35596 0.01273 -0.03094 -266210499988162471783358647053955629056.00000
0.35867 0.01279 -0.02906 -268879381138268580487764170061677330432.00000
0.35312 0.05287 -0.03123 -248815920146288329846043429353293873152.00000
0.35215 0.05625 -0.03073 -246147038996182221141637906345572171776.00000
0.35511 0.05748 -0.02926 -251484801296394438550448952361015574528.00000
0.34850 0.06568 -0.02859 -251484801296394438550448952361015574528.00000
0.35120 0.06707 -0.02702 -242143717271023058085029621833989619712.00000
0.34796 0.07356 -0.02966 -243483309578115439961520065939677118464.00000
0.35109 0.07121 -0.02770 -239479987852956276904911781428094566400.00000
0.34653 0.08087 -0.02983 -248810667002200984063403627015210795008.00000
0.35089 0.08446 -0.03028 -240804023551882657950187057992045690880.00000
0.34986 0.08807 -0.03011 -243457287246593954868366141616277159936.00000
0.35712 -0.07763 -0.03403 -332963763651604812965949601013978628096.00000
0.36279 -0.08287 -0.03490 -330294882501498704261544078006256926720.00000
0.35689 -0.06718 -0.03160 -326301965652466214511863278434584100864.00000
0.36158 -0.06577 -0.03048 -324957120201286486852733031990813523968.00000
0.35587 -0.05673 -0.02861 -314318022808510210435192349223236403200.00000
0.36145 -0.05596 -0.02859 -322288239051180378148327508983091822592.00000
0.35685 -0.04858 -0.02803 -310262656420308077192276216064853934080.00000
0.36230 -0.04737 -0.02793 -307578157814807156701644253673642000384.00000
0.36098 -0.03836 -0.03029 -302250780108312008948090268650857037824.00000
0.36457 -0.04437 -0.02949 -302229970356058662334235298771037585408.00000
0.36334 -0.03539 -0.03213 -299581898958205900243684745643135336448.00000
0.36824 -0.03296 -0.03128 -290240835215244123429935839063360667648.00000
0.36557 -0.02358 -0.03289 -295568192639329667531819400138894344192.00000
0.36856 -0.02869 -0.03109 -290240835215244123429935839063360667648.00000
0.36776 -0.02013 -0.03470 -291564870914170504475211115627311792128.00000
0.36401 0.00118 -0.02974 -282228999468067262489090739543866343424.00000
0.35939 0.06385 -0.02962 -254138064991105735468628035985247043584.00000
0.36353 0.06595 -0.02880 -254112002094765043072133263767344513024.00000
0.35828 0.06745 -0.02917 -244812598421129166789435144841711321088.00000
0.36170 0.07381 -0.02844 -251469143276180419460881665083022770176.00000
0.35822 0.08117 -0.03160 -246141806134504479010668527954740379648.00000
0.36471 0.08106 -0.03231 -252798371271965335333785472143303114752.00000
0.35559 0.08832 -0.03067 -247476185862328722407860017616847372288.00000
0.36212 0.08881 -0.03151 -250129469839449622977709525188330127360.00000
0.35193 0.09423 -0.02870 -247476185862328722407860017616847372288.00000
0.36158 0.09878 -0.03304 -243457287246593954868366141616277159936.00000
0.37045 -0.09637 -0.03843 -318295322202147888398646709411418996736.00000
0.37210 -0.09206 -0.03885 -324967525077413160159660516930723250176.00000
0.37930 -0.09234 -0.03863 -326301965652466214511863278434584100864.00000
0.37092 -0.07902 -0.03542 -330284457342962427302946169119095914496.00000
0.37273 -0.07413 -0.03053 -318295322202147888398646709411418996736.00000
0.36360 -0.06173 -0.02645 -322267409016517427882802115156021084160.00000
0.36467 -0.05775 -0.02665 -319614145321806130964623031531789615104.00000
0.36514 -0.05333 -0.02634 -314271170442325775076513031072765706240.00000
0.36924 -0.04202 -0.02814 -295573405218597806011118354582474850304.00000
0.37502 -0.04477 -0.02799 -296912997525690187887608798688162349056.00000
0.37342 -0.03495 -0.03082 -291575275790297177782138600567221518336.00000
0.37022 0.06972 -0.03000 -255451634966676632251964555767534583808.00000
0.37659 0.06816 -0.02965 -254137963579057717210275916248990613504.00000
0.37140 0.07546 -0.03183 -248795049546806172277177187631720562688.00000
0.37762 0.07913 -0.03194 -254137963579057717210275916248990613504.00000
0.37051 0.09034 -0.03352 -255461999277984098255551192812941737984.00000
0.37622 0.08886 -0.03232 -256780862962461548124868362827814928384.00000
0.36707 0.09798 -0.03216 -232776550066901381571445095141809848320.00000
0.36971 0.09962 -0.02921 -251463930696912280981582710639442264064.00000
0.36926 0.10595 -0.03542 -238109160635074271455968458555426603008.00000
0.36704 0.10938 -0.03436 -251463971261731488284923558533944836096.00000
0.39255 -0.11940 -0.04672 -330289669922230565782245123562676420608.00000
0.40418 -0.13131 -0.04960 -323612254467697155541932361599791661056.00000
0.39404 -0.11356 -0.04670 -324957120201286486852733031990813523968.00000
0.53060 -0.25875 -0.15191 -326281095052984056942997036713010790400.00000
0.59731 -0.27480 -0.21559 -319619357901074269443921985975370121216.00000
0.65031 -0.27986 -0.25409 -312931537570414185896681739072575635456.00000
0.38379 0.07722 -0.03073 -250129490121859226629379949135581413376.00000
0.39070 0.07530 -0.02963 -244791768386466216523909751014640582656.00000
0.38319 0.08791 -0.03173 -252793158692697196854486517699722608640.00000
0.38992 0.08625 -0.03040 -255467292986890651341531843045527388160.00000
0.37929 0.09620 -0.03017 -252798371271965335333785472143303114752.00000
0.38168 0.09739 -0.02641 -231462939526511277484767727465019736064.00000
0.37435 0.10325 -0.02784 -255482869877466255824417434534515048448.00000
0.37996 0.10176 -0.02593 -230128498951458223132564965961158885376.00000
0.37410 0.10892 -0.02864 -251479548152307092767809150022932496384.00000
0.37619 0.11009 -0.02478 -246146978148953410186626634503818313728.00000
0.36967 0.11615 -0.02689 -248810606154972173108392355173456936960.00000
0.39193 0.09288 -0.02665 -252793138410287593202816093752471322624.00000
0.40260 0.09352 -0.02709 -243462438978633282392653824218103808000.00000
0.38980 0.09731 -0.02590 -248795049546806172277177187631720562688.00000
0.39942 0.11078 -0.02731 -235476726975025924803314768758265872384.00000
0.38141 0.10826 -0.02227 -246141745287275668055657256112986521600.00000
0.38657 0.11235 -0.02025 -246152190728221548665925588947398819840.00000
0.37710 0.11007 -0.01995 -252798310424736524378774200301549256704.00000
0.38380 0.11603 -0.01921 -252808776148092008640712957083212840960.00000
0.36497 0.10771 -0.00760 -251484720166756023943767256572010430464.00000
0.43188 0.08258 -0.03586 -250145148142073245718947236413574217728.00000
0.43647 0.09166 -0.03154 -250145148142073245718947236413574217728.00000
0.42205 0.09873 -0.03190 -250145107577254038415606388519071645696.00000
0.42916 0.10247 -0.02878 -251458697835234538850613332248610471936.00000
0.42195 0.10592 -0.03256 -248810626437381776760062779120708222976.00000
0.47366 0.06578 -0.03110 -252819241871447492902651713864876425216.00000
0.46895 0.07275 -0.02939 -248821071878327657370331111955120521216.00000
0.45478 0.07626 -0.03159 -254153560752042925344831931685229559808.00000
0.46653 0.08027 -0.02872 -252813948162540939816671063632290775040.00000
0.45030 0.09827 -0.03091 -255467252422071444038190995151024816128.00000
0.45919 0.10230 -0.02691 -252798350989555731682115048196051828736.00000
0.44706 0.11285 -0.03055 -254138024426286528165287188090744471552.00000
0.45060 0.11437 -0.02421 -251479568434716696419479573970183782400.00000
0.46686 0.09698 -0.02124 -250145148142073245718947236413574217728.00000
