# .PCD v0.7 - Point Cloud Data file format
VERSION 0.7
FIELDS x y z
SIZE 4 4 4
TYPE F F F
COUNT 1 1 1
WIDTH 251
HEIGHT 1
VIEWPOINT 0 0 0 1 0 0 0
POINTS 251
DATA ascii
0.33054 -0.00716 -0.02947 -291575235225477970478797752672718946304.00000
0.33129 -0.00458 -0.03040 -290230430339117450123008354123450941440.00000
0.33162 0.00376 -0.03034 -282223786888799124009791785100285837312.00000
0.33179 0.00652 -0.03054 -280894538610604604485217554092754206720.00000
0.33184 0.01209 -0.03059 -267539727983947387656262454114235973632.00000
0.33221 0.01772 -0.03137 -267513705652425902563108529790836015104.00000
0.33108 0.02593 -0.03020 -270151311326923180391720326137074679808.00000
0.33097 0.02873 -0.03035 -267492835052943744994242288069262704640.00000
0.33077 0.03443 -0.03084 -251489953028433766074736634962842222592.00000
0.33112 -0.04728 -0.03045 -304950916451617344876619094372810489856.00000
0.33216 -0.04473 -0.03112 -306285357026670399228821855876671340544.00000
0.33016 -0.03918 -0.02694 -295594214970851152624973324462294302720.00000
0.33027 -0.03347 -0.02979 -304924894120095859783465170049410531328.00000
0.33396 -0.03241 -0.03048 -292909716365350232134341362071082369024.00000
0.33234 -0.02861 -0.03164 -295568192639329667531819400138894344192.00000
0.33503 -0.02987 -0.03140 -290230430339117450123008354123450941440.00000
0.33245 -0.02235 -0.03051 -291570022646209831999498798229138440192.00000
0.33729 -0.02140 -0.03295 -296897359787885772449711935357420830720.00000
0.33392 -0.01394 -0.03129 -291570022646209831999498798229138440192.00000
0.33649 -0.01464 -0.03076 -288895928916835584815794320777836232704.00000
0.33425 -0.01107 -0.03139 -294238903796315940703904321236860141568.00000
0.33688 -0.00862 -0.03058 -290235582071156777647296036725277589504.00000
0.33379 -0.00501 -0.03002 -290230430339117450123008354123450941440.00000
0.33638 -0.00545 -0.02954 -290230430339117450123008354123450941440.00000
0.33395 0.00359 -0.02968 -280889346313746069657589023596424986624.00000
0.33677 0.00338 -0.02954 -283558227463852178361994546604146688000.00000
0.33403 0.00929 -0.02967 -275556796592801990728076932024562089984.00000
0.33644 0.00927 -0.02892 -280889346313746069657589023596424986624.00000
0.33425 0.01501 -0.03010 -267534515404679249176963499670655467520.00000
0.33661 0.01220 -0.02920 -268889786014395253794691655001587056640.00000
0.33460 0.02084 -0.03091 -263505171347998601027201290835672956928.00000
0.33701 0.01813 -0.02996 -266200074829626194824760738166794616832.00000
0.33432 0.02369 -0.03070 -266163647621978036424679328903484932096.00000
0.33631 0.02693 -0.02958 -247481520136054482797181515743935594496.00000
0.33373 0.03236 -0.03078 -254153662164090943603184051421485989888.00000
0.33616 0.02990 -0.02969 -239474856403326553032294522773519204352.00000
0.33311 0.03811 -0.03072 -252829646747574166209579198804786151424.00000
0.33552 0.03575 -0.02953 -244828236158933582227332008172452839424.00000
0.33243 0.04389 -0.03078 -247507542467575967890335440067335553024.00000
0.33518 0.04183 -0.03004 -246167889313254775058833724119894196224.00000
0.33203 0.04678 -0.03079 -243499008163148666354428201112172494848.00000
0.33405 0.04752 -0.02954 -243467793534768646433645746292443316224.00000
0.33030 0.05515 -0.03025 -242138545256574126909071515284911685632.00000
0.33308 0.05338 -0.02948 -247455497804532997704027591420535635968.00000
0.33062 0.05883 -0.03166 -244802234109821700785848507796304166912.00000
0.33306 0.06024 -0.03114 -251453586668014418629666497541286395904.00000
0.33134 0.06939 -0.03135 -232802673810470884922951139201466236928.00000
0.33285 -0.05196 -0.02978 -304950916451617344876619094372810489856.00000
0.33578 -0.05427 -0.02972 -319629762777200942750849470915279847424.00000
0.33367 -0.04906 -0.03001 -307619797601723453581024617380532191232.00000
0.33664 -0.05127 -0.02995 -314292000476988725342038424899836444672.00000
0.33463 -0.04262 -0.02953 -308949045879917973105598848388063821824.00000
0.33841 -0.04156 -0.02970 -312947155025808997682908178456065867776.00000
0.33576 -0.03652 -0.02952 -296923442966636068497877131522574647296.00000
0.33981 -0.03542 -0.03008 -298257883541689122850079893026435497984.00000
0.34036 -0.02941 -0.03407 -288906394640191069077733077559499816960.00000
0.34165 -0.03316 -0.03191 -292909716365350232134341362071082369024.00000
0.34225 -0.02354 -0.03556 -294233752064276613179616638635033493504.00000
0.34514 -0.02452 -0.03480 -294233752064276613179616638635033493504.00000
0.34052 -0.01924 -0.03255 -291564870914170504475211115627311792128.00000
0.34159 -0.01597 -0.02904 -290230430339117450123008354123450941440.00000
0.34031 -0.00941 -0.03103 -290219984898171569512740021289038643200.00000
0.34254 -0.01307 -0.02991 -291564870914170504475211115627311792128.00000
0.33975 -0.00610 -0.02996 -290235642918385588602307308567031447552.00000
0.34417 -0.00373 -0.03118 -270219034292589773319265886009118687232.00000
0.34028 -0.00000 -0.03026 -282223786888799124009791785100285837312.00000
0.34370 0.00281 -0.03024 -278210040005103683994585591701542273024.00000
0.33924 0.00623 -0.02858 -284892668038905232714197308108007538688.00000
0.34343 0.00603 -0.02979 -276870386850782491163083875754100916224.00000
0.33936 0.01529 -0.02879 -271558667164501362499097178009308758016.00000
0.34258 0.01549 -0.02872 -270213821713321634839966931565538181120.00000
0.33952 0.02141 -0.02929 -260862312529413977415949692151351214080.00000
0.34273 0.01866 -0.02902 -272872277704891466585774545686098870272.00000
0.33916 0.02749 -0.02927 -254153723011319754558195323263239847936.00000
0.34260 0.02499 -0.02922 -260857099950145838936650737707770707968.00000
0.33830 0.03342 -0.02874 -251484841861213645853789800255518146560.00000
0.34127 0.03099 -0.02804 -252834879609251908340548577195617943552.00000
0.33815 0.03971 -0.02943 -250155613865428729980885993195237801984.00000
0.34266 0.03810 -0.03070 -254143318135193081251267838323330121728.00000
0.33774 0.04602 -0.02995 -243483350142934647264860913834179690496.00000
0.34157 0.04433 -0.03022 -240819722136915884343095193164541067264.00000
0.33828 0.04976 -0.03138 -248810707567020191366744474909713367040.00000
0.33979 0.05363 -0.02968 -254132852411837596989329081541666537472.00000
0.33664 0.05904 -0.03125 -244812598421129166789435144841711321088.00000
0.33949 0.05697 -0.03000 -248810707567020191366744474909713367040.00000
0.33586 0.06567 -0.03187 -246147079561001428444978754240074743808.00000
0.33925 0.06419 -0.03133 -243488583004612389395830292225011482624.00000
0.33503 0.06862 -0.03160 -240809317260789211036167708224631341056.00000
0.33551 0.07199 -0.02879 -244812638985948374092775992736213893120.00000
0.34453 -0.06200 -0.03263 -323633043937540898504116907532359827456.00000
0.34100 -0.05081 -0.03053 -316960881627094834046443947907558146048.00000
0.34318 -0.05201 -0.02879 -312957559901935670989835663395975593984.00000
0.34446 -0.04913 -0.02953 -304950916451617344876619094372810489856.00000
0.34531 -0.04586 -0.02976 -307609392725596780274097132440622465024.00000
0.34477 -0.03841 -0.03217 -306264526992007448963296462049600602112.00000
0.34575 -0.04226 -0.02951 -306264526992007448963296462049600602112.00000
0.34800 -0.03298 -0.03498 -298247478665562449543152408086525771776.00000
0.34934 -0.03706 -0.03252 -302255992687580147427389223094437543936.00000
0.34809 -0.02924 -0.03446 -295573405218597806011118354582474850304.00000
0.35187 -0.02692 -0.03375 -292899311489223558827413877131172642816.00000
0.34557 -0.02068 -0.03015 -294233752064276613179616638635033493504.00000
0.34906 -0.01824 -0.02940 -295568192639329667531819400138894344192.00000
0.34600 -0.01057 -0.02951 -292899311489223558827413877131172642816.00000
0.34896 -0.01118 -0.02856 -294233752064276613179616638635033493504.00000
0.34768 -0.00425 -0.03109 -290220005180581173164410445236289929216.00000
0.35038 -0.00809 -0.02996 -300885124904878934675105052327267008512.00000
0.34909 0.00233 -0.03250 -282218574309530985530492830656705331200.00000
0.35099 -0.00124 -0.03025 -284882242880368955755599399220846526464.00000
0.34773 0.00917 -0.03068 -275551584013533852248777977580981583872.00000
0.35026 0.00915 -0.02913 -275561988889660525555705462520891310080.00000
0.34765 0.01250 -0.03060 -268879381138268580487764170061677330432.00000
0.34970 0.01593 -0.02854 -267544940563215526135561408557816479744.00000
0.34513 0.02209 -0.02780 -247517906778883433893922077112742707200.00000
0.34958 0.01931 -0.02851 -262196753104467031768152453655212064768.00000
0.34469 0.02852 -0.02771 -252850517347056323778445440526359461888.00000
0.35067 0.02641 -0.03018 -247507501902756760586994592172832980992.00000
0.34646 0.03585 -0.03062 -258146639860352244307876122834912673792.00000
0.35070 0.03709 -0.03116 -258146639860352244307876122834912673792.00000
0.34649 0.04289 -0.03157 -248815960711107537149384277247796445184.00000
0.34966 0.04394 -0.03081 -246147079561001428444978754240074743808.00000
0.34549 0.04955 -0.03140 -247481479571235275493840667849433022464.00000
0.34879 0.04719 -0.03029 -239485261279453226339222007713428930560.00000
0.34398 0.05594 -0.03076 -250129530686678433932720797030083985408.00000
0.34794 0.05418 -0.03044 -243493734736651716920117974826838130688.00000
0.34250 0.06235 -0.03033 -248815920146288329846043429353293873152.00000
0.34556 0.06017 -0.02888 -239495605308351088691138220811584798720.00000
0.34475 0.06738 -0.02947 -248810707567020191366744474909713367040.00000
0.34332 0.07010 -0.02851 -248810707567020191366744474909713367040.00000
0.33876 0.07054 -0.02792 -246147079561001428444978754240074743808.00000
0.34230 0.07319 -0.02812 -250145148142073245718947236413574217728.00000
0.33578 0.07521 -0.02575 -246141846699323686314009375849242951680.00000
0.33979 0.07881 -0.02681 -251479588717126300071149997917435068416.00000
0.34958 -0.07131 -0.03536 -327636365662700061560725192043942379520.00000
0.35291 -0.06900 -0.03320 -318295281637328681095305861516916424704.00000
0.35093 -0.06320 -0.03481 -330305267095215773916801138998915366912.00000
0.35336 -0.05995 -0.03168 -319629762777200942750849470915279847424.00000
0.35005 -0.04904 -0.03087 -311617866182795270854993099554031665152.00000
0.35295 -0.05063 -0.02942 -319624469068294389664868820682694197248.00000
0.35047 -0.04520 -0.03056 -302261164702029078603347329643515478016.00000
0.35465 -0.04340 -0.02978 -307598906719831692360487951711707594752.00000
0.35532 -0.03621 -0.03411 -290240814932834519778265415116109381632.00000
0.35665 -0.04056 -0.03130 -304930045852135187307752852651237179392.00000
0.35541 -0.03218 -0.03358 -290240835215244123429935839063360667648.00000
0.36033 -0.03012 -0.03350 -294238944361135148007245169131362713600.00000
0.35498 -0.02406 -0.03202 -287561549189011341418602831115729240064.00000
0.35862 -0.02523 -0.03115 -290230430339117450123008354123450941440.00000
0.35564 -0.01667 -0.03192 -298226648630899499277627014259455033344.00000
0.36047 -0.01798 -0.03228 -296892208055846444925424252755594182656.00000
0.35684 -0.00572 -0.03238 -292888825483458470913804696402257772544.00000
0.36096 -0.00633 -0.03192 -291554384908405416561601934898396921856.00000
0.35672 -0.00197 -0.03205 -286216642890602802804461312830204805120.00000
0.35977 -0.00228 -0.03047 -292888845765868074565475120349509058560.00000
0.35300 0.05679 -0.03173 -243488522157383578440819020383257624576.00000
0.35542 0.06183 -0.03028 -248821071878327657370331111955120521216.00000
0.34877 0.06590 -0.02892 -250160725032648850201832827902561878016.00000
0.35409 0.06510 -0.02952 -248821071878327657370331111955120521216.00000
0.34998 0.07545 -0.03213 -244807385841861028310136190398130814976.00000
0.35318 0.07300 -0.03009 -243472945266807973957933428894269964288.00000
0.35079 0.08541 -0.03518 -248810707567020191366744474909713367040.00000
0.35319 0.08687 -0.03300 -238135182966595756549122382878826561536.00000
0.34919 0.08843 -0.03428 -242138504691754919605730667390409113600.00000
0.34940 0.09239 -0.03068 -247476246709557533362871289458601230336.00000
0.35653 -0.07697 -0.03337 -334298204226657867318152362517839478784.00000
0.36149 -0.08141 -0.03351 -328960441926445649909341316502396076032.00000
0.35743 -0.06772 -0.03220 -326301965652466214511863278434584100864.00000
0.36475 -0.07399 -0.03475 -330289669922230565782245123562676420608.00000
0.35734 -0.05802 -0.03020 -312983582233457156082989587719375552512.00000
0.36410 -0.05811 -0.03127 -319608932742537992485324077088209108992.00000
0.35824 -0.04964 -0.02950 -306274972432953329573564794884012900352.00000
0.36378 -0.04840 -0.02940 -304919640976008514000825367711327453184.00000
0.36280 -0.03945 -0.03218 -300921450700479074816834341854320263168.00000
0.36724 -0.04145 -0.03145 -294244055528355268228192003838686789632.00000
0.36519 -0.03639 -0.03403 -298252549267963362460758394899347275776.00000
0.36920 -0.03343 -0.03220 -290240814932834519778265415116109381632.00000
0.36323 -0.02681 -0.03097 -288895989764064395770805592619590090752.00000
0.36856 -0.02869 -0.03109 -288906354075371861774392229664997244928.00000
0.36692 0.05900 -0.03084 -242122887236360107819504228006918881280.00000
0.36170 0.06098 -0.03136 -248805494987752052887445520466132860928.00000
0.36494 0.06234 -0.02952 -250108700652015483667195403203013246976.00000
0.35961 0.06842 -0.03057 -246147018713772617489967482398320885760.00000
0.36390 0.07553 -0.03065 -250134702701127365108678903579161919488.00000
0.35787 0.08085 -0.03122 -243472904701988766654592580999767392256.00000
0.36316 0.07976 -0.03074 -250145107577254038415606388519071645696.00000
0.35667 0.08944 -0.03187 -247476226427147929711200865511349944320.00000
0.36133 0.08805 -0.03070 -244807345277041821006795342503628242944.00000
0.35486 0.09253 -0.03091 -247476226427147929711200865511349944320.00000
0.35993 0.09698 -0.03128 -240804023551882657950187057992045690880.00000
0.36300 -0.08761 -0.03085 -319624570480342407923220940418950627328.00000
0.37167 -0.09656 -0.03380 -326296773355607679684234747938254880768.00000
0.36925 -0.08305 -0.03485 -324957120201286486852733031990813523968.00000
0.37518 -0.08809 -0.03480 -324957120201286486852733031990813523968.00000
0.37396 -0.07623 -0.03735 -327610383895997783770912115615044993024.00000
0.37706 -0.07806 -0.03446 -318284917326021215091719224471509270528.00000
0.37344 -0.07018 -0.03587 -323601849591570482235004876659881934848.00000
0.37956 -0.06877 -0.03486 -311612714450755943330705416952205017088.00000
0.37381 -0.05977 -0.03448 -314260765566199101769585546132855980032.00000
0.38036 -0.06381 -0.03473 -310278273875702888978502655448344166400.00000
0.37289 -0.04901 -0.03214 -302240395514594939292833207658198597632.00000
0.37269 0.05692 -0.03043 -247465821551021256404273380571440218112.00000
0.37588 0.06282 -0.02844 -248815818734240311587691309617037443072.00000
0.37063 0.06999 -0.03038 -256786075541729686604167317271395434496.00000
0.37571 0.06763 -0.02889 -254148368455184390517203401188900339712.00000
0.37055 0.07485 -0.03104 -247465801268611652752602956624188932096.00000
0.37417 0.08186 -0.02967 -248795049546806172277177187631720562688.00000
0.36783 0.08797 -0.03095 -250145107577254038415606388519071645696.00000
0.37289 0.08613 -0.02935 -256780862962461548124868362827814928384.00000
0.36528 0.09618 -0.03040 -227459617801352114428159442953437184000.00000
0.36877 0.09868 -0.02835 -244812537573900355834423872999957463040.00000
0.36498 0.10135 -0.03115 -236800701826723494893578773480463138816.00000
0.36371 0.10558 -0.03099 -250150320156522176894905342962652151808.00000
0.38626 0.06792 -0.03143 -258162095056470226880739170640392617984.00000
0.38328 0.07689 -0.03031 -248800221561255103453135294180798496768.00000
0.38903 0.07432 -0.02838 -242138464126935712302389819495906541568.00000
0.38107 0.08631 -0.02998 -255467252422071444038190995151024816128.00000
0.38819 0.08505 -0.02908 -254132852411837596989329081541666537472.00000
0.37876 0.09574 -0.02973 -251463930696912280981582710639442264064.00000
0.38382 0.09334 -0.02725 -248795049546806172277177187631720562688.00000
0.37714 0.10007 -0.02927 -255488062174324790652045965030844268544.00000
0.38591 0.11361 -0.03165 -236816319282118306679805212863953371136.00000
0.37631 0.11124 -0.03056 -250160725032648850201832827902561878016.00000
0.37883 0.11920 -0.02799 -248815859299059518891032157511540015104.00000
0.36967 0.11615 -0.02689 -242159334726417869871256061217479852032.00000
0.39146 0.08660 -0.02559 -250129530686678433932720797030083985408.00000
0.39721 0.08985 -0.02354 -243472945266807973957933428894269964288.00000
0.39329 0.10646 -0.02927 -246141806134504479010668527954740379648.00000
0.40339 0.10726 -0.02914 -243457368376232369475047837405282304000.00000
0.39100 0.11756 -0.02945 -248795049546806172277177187631720562688.00000
0.39335 0.11886 -0.02495 -244807385841861028310136190398130814976.00000
0.38624 0.11949 -0.02687 -251458718117644142502283756195861757952.00000
0.38760 0.12670 -0.02286 -251489953028433766074736634962842222592.00000
0.37684 0.12236 -0.02172 -254148429302413201472214673030654197760.00000
0.38983 0.13629 -0.02551 -251489953028433766074736634962842222592.00000
0.42529 0.10007 -0.02664 -246141826416914082662338951901991665664.00000
0.41480 0.10109 -0.02822 -246147038996182221141637906345572171776.00000
0.41722 0.10915 -0.02352 -246136674684874755138051269300165017600.00000
0.40000 0.11727 -0.02220 -239490494141130968470191386104260722688.00000
0.41096 0.15933 -0.03337 -238192399644087657911388338074704412672.00000
0.46497 0.08012 -0.03656 -255482869877466255824417434534515048448.00000
0.47067 0.08183 -0.03055 -250145067012434831112265540624569073664.00000
0.45508 0.09248 -0.03272 -250145107577254038415606388519071645696.00000
0.45919 0.10230 -0.02691 -248810626437381776760062779120708222976.00000
0.44524 0.10360 -0.02899 -251479548152307092767809150022932496384.00000
0.45249 0.10710 -0.02446 -252813948162540939816671063632290775040.00000
0.47874 0.10251 -0.02600 -252798371271965335333785472143303114752.00000
