# .PCD v0.7 - Point Cloud Data file format
VERSION 0.7
FIELDS x y z rgb
SIZE 4 4 4 4
TYPE F F F F
COUNT 1 1 1 1
WIDTH 729
HEIGHT 1
VIEWPOINT 0 0 0 1 0 0 0
POINTS 729
DATA ascii
0.3544882536 -0.0769231245 -0.2887706757 -2.9155444576e+38
0.3560329080 -0.0706342757 -0.2922315001 -2.8755633661e+38
0.3574815392 -0.0641582832 -0.2954866290 -2.8889598976e+38
0.3554337025 -0.0496964604 -0.3027698398 -2.8891679952e+38
0.3598676324 -0.0583960116 -0.3031684756 -2.9023043034e+38
0.3564944863 -0.0428298786 -0.3052788973 -2.9425456182e+38
0.3574430346 -0.0358308628 -0.3075473309 -2.9157527579e+38
0.3589868546 -0.0214915182 -0.3113313317 -2.9691303809e+38
0.3638376594 -0.0220368896 -0.3101130724 -2.9691825067e+38
0.3595751524 -0.0141808949 -0.3128337860 -2.9824747867e+38
0.3649549186 -0.0070914458 -0.3129169345 -3.0225601297e+38
0.3670982718 -0.0001393370 -0.3458905220 -3.0225080039e+38
0.3689609468 0.0080156513 -0.3293825388 -3.0092157239e+38
0.3605893254 0.0231429636 -0.3162801266 -2.9557863808e+38
0.3656083047 0.0157299805 -0.3150277138 -2.9291494923e+38
0.3600806892 0.0381217152 -0.3157316446 -2.9290975693e+38
0.3639400005 0.0382539481 -0.3099339008 -2.9424938980e+38
0.3590580821 0.0529290363 -0.3140964508 -2.8222382745e+38
0.3645413518 0.0461762473 -0.3138743639 -2.9024087578e+38
0.3556154072 0.0660121143 -0.3023478389 -2.7823091060e+38
0.3611296117 0.0598247722 -0.3025547862 -2.7824133576e+38
0.3536831439 0.0797584951 -0.2987697721 -2.8490311348e+38
0.3593261242 0.0740079880 -0.2993583083 -2.8357388548e+38
0.3513272703 0.0929950625 -0.2942728400 -2.8089979175e+38
0.3570570946 0.0877089873 -0.2951867580 -2.8490311348e+38
0.3610179722 -0.0806507170 -0.2960528135 -2.9156487091e+38
0.3668067753 -0.0833249763 -0.2987494469 -2.8889598976e+38
0.3631531596 -0.0663563684 -0.2983843088 -2.9289931149e+38
0.3674158454 -0.0754611939 -0.2977405190 -2.9024083522e+38
0.3659256995 -0.0525160581 -0.3044465780 -2.9958191924e+38
0.3708423674 -0.0535679907 -0.3027660847 -3.0491968154e+38
0.3671330214 -0.0453474745 -0.3071129322 -2.9958191924e+38
0.3682135046 -0.0380320996 -0.3095227480 -2.9557859752e+38
0.3699743748 -0.0230229851 -0.3135380745 -2.9959232412e+38
0.3751392365 -0.0236035865 -0.3120862246 -2.9692344297e+38
0.3694758415 -0.0150347706 -0.3103672862 -2.9425977440e+38
0.3751725554 -0.0077030566 -0.3102965355 -2.9159610582e+38
0.3715575933 0.0001839353 -0.3174478412 -2.9827871358e+38
0.3758260608 0.0080234911 -0.3120571375 -2.9559942755e+38
0.3706369102 0.0236127898 -0.3139448762 -2.9424415694e+38
0.3759195209 0.0159365721 -0.3124876022 -2.9425977440e+38
0.3692848682 0.0311117694 -0.3091382980 -2.9424415694e+38
0.3689364791 0.0387539603 -0.3086997271 -2.9425456182e+38
0.3747373223 0.0474665910 -0.3112061620 -2.8893241697e+38
0.3740603030 0.0552226454 -0.3101472855 -2.8094660356e+38
0.3650760353 0.0679505542 -0.2997113466 -2.8358950294e+38
0.3709202111 0.0615772605 -0.2997996211 -2.8625838409e+38
0.3629198372 0.0821195021 -0.2959021926 -2.8490832606e+38
0.3689059317 0.0762146190 -0.2963915467 -2.8891164778e+38
0.3602929711 0.0957264006 -0.2911295295 -2.8356867290e+38
0.3663730621 0.0903191715 -0.2919591665 -2.8623755405e+38
0.3588172495 0.1022875383 -0.2884067297 -2.8356867290e+38
0.3775345683 -0.1003399268 -0.3232212663 -2.8222378689e+38
0.3850216866 -0.0948313922 -0.3250766993 -2.8356863234e+38
0.3752749264 -0.0710118338 -0.3040376902 -2.9691303809e+38
0.3812260032 -0.0819298029 -0.3079906106 -2.9024083522e+38
0.3769361377 -0.0638000593 -0.3074219823 -2.9959232412e+38
0.3835299611 -0.0660659000 -0.3102828860 -2.9959232412e+38
0.3797572851 -0.0403710678 -0.3110866547 -2.9293054640e+38
0.3852251172 -0.0498187765 -0.3115009665 -2.9159610582e+38
0.3817656636 -0.0246524941 -0.3153473139 -2.9293054640e+38
0.3887041807 -0.0257445816 -0.3185642958 -2.9159610582e+38
0.3817901313 -0.0082560331 -0.3135494590 -2.9425456182e+38
0.3887199163 -0.0088318288 -0.3167596459 -2.9558900239e+38
0.3824923635 0.0079615843 -0.3153561950 -2.9559421497e+38
0.3880480528 0.0079245092 -0.3137646317 -2.9158568067e+38
0.3812103868 0.0241071917 -0.3111712337 -2.9290971637e+38
0.3881564736 0.0162339788 -0.3142037988 -2.8892201210e+38
0.3809801340 0.0321572125 -0.3109865785 -2.9157527579e+38
0.3888250589 0.0415257812 -0.3184040785 -2.8624791837e+38
0.3826515377 0.0491359606 -0.3192214370 -2.8759797640e+38
0.3793134093 0.0560254902 -0.3086004853 -2.8228104413e+38
0.3759970665 0.0624856651 -0.2982482314 -2.8492394351e+38
0.3826925755 0.0725878254 -0.3037562370 -2.9026170581e+38
0.3738671243 0.0773566663 -0.2947301269 -2.9291496951e+38
0.3800723553 0.0877898484 -0.2994461656 -2.8891164778e+38
0.3711898625 0.0916673839 -0.2901626825 -2.8490311348e+38
0.3768873215 0.1023213789 -0.2940783501 -2.7689647003e+38
0.3691131175 0.1064903066 -0.2888458967 -2.7155870773e+38
0.3673342168 0.1131028309 -0.2857020497 -2.7689647003e+38
0.4014535546 -0.1245282665 -0.3452645540 -2.8889598976e+38
0.4024169743 -0.1147502959 -0.3441887498 -2.9156487091e+38
0.4032232761 -0.1049667299 -0.3429179788 -2.8623755405e+38
0.3961641788 -0.0919359103 -0.3382869959 -2.9158052893e+38
0.4043457210 -0.0854291022 -0.3397541642 -2.9958717238e+38
0.3970606625 -0.0636526942 -0.3325187564 -2.9559944783e+38
0.4047898054 -0.0660189986 -0.3357094526 -2.9026170581e+38
0.3953896463 -0.0534252450 -0.3247644305 -2.9026687783e+38
0.4045355916 -0.0468550026 -0.3307399154 -2.8759801696e+38
0.3981229663 -0.0365727767 -0.3300711513 -2.9027209041e+38
0.4053069055 -0.0285993721 -0.3301233649 -2.9026170581e+38
0.3944414854 -0.0091743004 -0.3149729967 -2.9292012124e+38
0.4028331935 -0.0188544430 -0.3215079904 -2.9293058696e+38
0.3949380815 -0.0006845398 -0.3160855770 -2.8757195407e+38
0.4011598825 0.0078191319 -0.3149694204 -2.7424839863e+38
0.3968232870 0.0252123140 -0.3223610520 -2.9424415694e+38
0.4012846053 0.0165506080 -0.3154167533 -2.8891679952e+38
0.4025351405 0.0343291536 -0.3201840520 -2.9025124009e+38
0.4036889970 0.0435689166 -0.3246095777 -2.8758235894e+38
0.3945937753 0.0595874265 -0.3193835616 -2.7961216298e+38
0.4029855430 0.0524118245 -0.3236418962 -2.8758235894e+38
0.3920888305 0.0672094449 -0.3129640818 -2.8758761209e+38
0.3981167674 0.0773913935 -0.3137917519 -2.9024083522e+38
0.3894828260 0.0922563523 -0.3112807274 -2.8890641492e+38
0.3966712356 0.0856211483 -0.3115419745 -2.8890639464e+38
0.3877999187 0.1000076532 -0.3085237741 -2.8223421205e+38
0.3928239048 0.1105070189 -0.3077975512 -2.7556198889e+38
0.3840038478 0.1148948371 -0.3022196889 -2.7556202945e+38
0.3884714246 0.1253077388 -0.3007091880 -2.7823091060e+38
0.3861015439 0.1323328763 -0.2968110442 -2.7823091060e+38
0.4040554166 -0.1340333968 -0.3359986544 -2.8355822746e+38
0.4098029733 -0.1361377537 -0.3321079016 -2.8355822746e+38
0.4083260298 -0.1166862473 -0.3408006430 -2.9423375206e+38
0.4174257517 -0.1105437726 -0.3424724340 -2.9289935205e+38
0.4119274020 -0.0985745937 -0.3445069194 -2.9024087578e+38
0.4208837152 -0.0917175189 -0.3458273411 -2.9958195981e+38
0.4147864580 -0.0798341185 -0.3470116854 -2.9958717238e+38
0.4212151766 -0.0813623518 -0.3439497948 -3.0091640038e+38
0.4128285050 -0.0585530102 -0.3364430070 -2.7024509719e+38
0.4210175872 -0.0506230816 -0.3368127346 -2.9291496951e+38
0.4134081900 -0.0298580360 -0.3332575560 -2.9024608836e+38
0.4205483198 -0.0405458659 -0.3339184523 -2.8890643521e+38
0.4080030322 -0.0101513285 -0.3158413172 -2.9291496951e+38
0.4152205586 -0.0199224874 -0.3169786930 -2.9958717238e+38
0.4148371220 -0.0014393907 -0.3147488832 -2.9691829123e+38
0.4152111411 0.0077070091 -0.3155741096 -2.9825273181e+38
0.4089690447 0.0257801563 -0.3183604479 -2.9292012124e+38
0.4153536856 0.0168875121 -0.3160289526 -2.9958191924e+38
0.4131702185 0.0349085853 -0.3109708428 -2.9157527579e+38
0.4162042141 0.0448204428 -0.3201392889 -2.9690782551e+38
0.4064723849 0.0614012703 -0.3151481152 -2.9424934924e+38
0.4154152274 0.0539833084 -0.3191004992 -2.9424415694e+38
0.4053281248 0.0700675398 -0.3134793043 -2.9024083522e+38
0.4114082754 0.0711535513 -0.3110562563 -2.9424415694e+38
0.4118486643 0.0904298276 -0.3163771629 -2.9024083522e+38
0.4117679298 0.1001677141 -0.3186307549 -2.8490307292e+38
0.4037514627 0.1069228202 -0.3183131218 -2.7956531061e+38
0.4091964364 0.1182232946 -0.3171222806 -2.7689642946e+38
0.4009767771 0.1243643239 -0.3164021969 -2.7823091060e+38
0.4041202366 0.1339725405 -0.3093013763 -2.7556202945e+38
0.3958883286 0.1393982470 -0.3082763553 -2.7689647003e+38
0.4013622105 0.1414170861 -0.3050127029 -2.7689647003e+38
0.4119002819 -0.1454376876 -0.3218418360 -2.7956527005e+38
0.4134626687 -0.1358975917 -0.3219069839 -2.8089971063e+38
0.4230177402 -0.1305327415 -0.3236195445 -2.8356859178e+38
0.4204360247 -0.1206436828 -0.3334010839 -2.9290448350e+38
0.4300873280 -0.1144101322 -0.3348643780 -2.8622708833e+38
0.4268092811 -0.1039290205 -0.3438857198 -2.9556823320e+38
0.4333705604 -0.1057884917 -0.3400809169 -2.9156487091e+38
0.4300772548 -0.0843700543 -0.3468351364 -2.9958195981e+38
0.4368626475 -0.0859810412 -0.3432946205 -2.9557859752e+38
0.4393978119 -0.0655709654 -0.3451020718 -2.9425456182e+38
0.4390764832 -0.0547126383 -0.3424414396 -2.8758235894e+38
0.4286033511 -0.0319237635 -0.3335784078 -2.9557863808e+38
0.4362030923 -0.0431649983 -0.3337451220 -2.9424415694e+38
0.4235860705 -0.0208957754 -0.3195260763 -2.9958195981e+38
0.4323346615 -0.0219090823 -0.3219455481 -2.9691305837e+38
0.4235700965 0.0076323766 -0.3181194663 -2.9691305837e+38
0.4298217297 -0.0020329775 -0.3146095872 -2.9958193952e+38
0.4236237407 0.0265970472 -0.3186476827 -2.9690263321e+38
0.4324734807 0.0173450746 -0.3209979534 -2.9823186121e+38
0.4246323109 0.0459527224 -0.3227050304 -2.9289931149e+38
0.4299397767 0.0365481451 -0.3156602979 -2.9288888633e+38
0.4304487407 0.0562498197 -0.3188326359 -2.9289409891e+38
0.4272870123 0.0650090948 -0.3123299479 -2.8889598976e+38
0.4278881550 0.0751205310 -0.3154162765 -2.8890643521e+38
0.4303272367 0.0863844976 -0.3233943582 -2.8757199463e+38
0.4218957722 0.0941334367 -0.3237984776 -2.8757195407e+38
0.4304945767 0.0968338549 -0.3259879351 -2.8223423233e+38
0.4190617502 0.1231789291 -0.3244657516 -2.7289310774e+38
0.4279902577 0.1163484827 -0.3248027563 -2.7155870773e+38
0.4163811207 0.1315112561 -0.3204640150 -2.7556202945e+38
0.4215207696 0.1435122937 -0.3178068995 -2.7556202945e+38
0.4087025821 0.1453354359 -0.3065298796 -2.7689647003e+38
0.4130265713 0.1568340957 -0.3029970527 -2.7422758888e+38
0.4077765346 0.1617746502 -0.2929898500 -2.7689647003e+38
0.4341603816 -0.1574323922 -0.3199030757 -2.7823082947e+38
0.4251369238 -0.1401414871 -0.3131390810 -2.8089971063e+38
0.4352478981 -0.1347442567 -0.3146091104 -2.8089971063e+38
0.4329129457 -0.1247061417 -0.3251022696 -2.8623747293e+38
0.4431397319 -0.1183837131 -0.3263110518 -2.9157004293e+38
0.4400396347 -0.1076762304 -0.3360391259 -2.9423375206e+38
0.4502765238 -0.1004105806 -0.3368764520 -2.9023043034e+38
0.4463694096 -0.0891683102 -0.3457534909 -2.9024083522e+38
0.4535127580 -0.0908619836 -0.3416699767 -2.8890639464e+38
0.4461943805 -0.0558776334 -0.3390307426 -2.8891679952e+38
0.4564383328 -0.0694949701 -0.3438749313 -2.8891679952e+38
0.4432207942 -0.0441346690 -0.3304985166 -2.9958191924e+38
0.4503820837 -0.0451239944 -0.3270181417 -2.9290971637e+38
0.4414819479 -0.0229640584 -0.3242189288 -2.9424415694e+38
0.4425195754 -0.0129251350 -0.3259386420 -2.9958191924e+38
0.4437341094 0.0074380813 -0.3281283379 -2.9557859752e+38
0.4529648721 -0.0032082563 -0.3294399381 -2.9424415694e+38
0.4415061474 0.0277075041 -0.3233165145 -2.8755633661e+38
0.4510603547 0.0282971505 -0.3254120946 -2.8088934631e+38
0.4426600337 0.0483584851 -0.3274274468 -2.9422853949e+38
0.4482541680 0.0383235365 -0.3197554946 -2.8222378689e+38
0.4416708946 0.0584315285 -0.3262050748 -2.9289409891e+38
0.4429200292 0.0678364784 -0.3110212088 -2.8889601005e+38
0.4388673306 0.0781621188 -0.3225538731 -2.8356867290e+38
0.4462677836 0.0902818292 -0.3219116926 -2.8223423233e+38
0.4371182024 0.1090397760 -0.3247826695 -2.7556202945e+38
0.4464195967 0.1012310162 -0.3243569732 -2.8223423233e+38
0.4339377284 0.1286932677 -0.3226828575 -2.7289314830e+38
0.4435331821 0.1216093078 -0.3227569461 -2.7556202945e+38
0.4298350811 0.1476260871 -0.3192415237 -2.7556202945e+38
0.4361616373 0.1498075426 -0.3149834871 -2.7289314830e+38
0.4263875484 0.1556943357 -0.3143398762 -2.7556202945e+38
0.4309328496 0.1679936200 -0.3100360632 -2.7556202945e+38
0.4170496464 0.1684078872 -0.2986801863 -2.7823091060e+38
0.4247877002 0.1730357558 -0.2992385626 -2.7823091060e+38
0.4429430962 -0.1626112163 -0.3208336234 -2.8087886031e+38
0.4520716667 -0.1679756790 -0.3215180039 -2.8088401204e+38
0.4396095574 -0.1469586641 -0.3092061281 -2.8087888059e+38
0.4504657388 -0.1414441615 -0.3103974462 -2.8488733377e+38
0.4498007298 -0.1204066351 -0.3216517568 -2.9157002265e+38
0.4565438330 -0.1224509552 -0.3167220950 -2.8755104290e+38
0.4536840916 -0.1115310565 -0.3271973133 -2.9423375206e+38
0.4645256698 -0.1041139290 -0.3277076483 -2.8489266804e+38
0.4607752562 -0.0925825760 -0.3373228312 -2.8623751349e+38
0.4715059400 -0.0841632709 -0.3373202682 -2.8489266804e+38
0.4581618607 -0.0572600439 -0.3257467151 -2.8758235894e+38
0.4685979784 -0.0710783526 -0.3294253945 -2.8889598976e+38
0.4576844573 -0.0461325869 -0.3232903481 -2.8890639464e+38
0.4670687020 -0.0366132855 -0.3220483065 -2.9023043034e+38
0.4610364139 -0.0252057668 -0.3282473087 -2.9024083522e+38
0.4622325897 -0.0144897569 -0.3300730586 -2.9290971637e+38
0.4636273384 0.0072626211 -0.3323727250 -2.8623751349e+38
0.4736879468 -0.0041186614 -0.3332517743 -2.8623751349e+38
0.4636674523 0.0291849338 -0.3328390121 -2.8089975119e+38
0.4714744389 0.0295498315 -0.3290178180 -2.8489786034e+38
0.4650279582 0.0515657514 -0.3371178508 -2.8089975119e+38
0.4737588167 0.0411333181 -0.3341510892 -2.8490307292e+38
0.4688598514 0.0626734719 -0.3262034059 -2.8489786034e+38
0.4646389484 0.0725521594 -0.3189932108 -2.8222901975e+38
0.4533729553 0.0917293578 -0.3181367517 -2.7823091060e+38
0.4606060982 0.0932023078 -0.3141004443 -2.7822050573e+38
0.4508552253 0.1125198230 -0.3170485497 -2.7556202945e+38
0.4578964710 0.1143015698 -0.3127926588 -2.7555158401e+38
0.4496800900 0.1344885975 -0.3198657632 -2.7289314830e+38
0.4565685987 0.1365543604 -0.3152924776 -2.6888978601e+38
0.4449914098 0.1541273892 -0.3158901334 -2.7022426715e+38
0.4515748620 0.1563884020 -0.3110401630 -2.7288270286e+38
0.4410900474 0.1624328643 -0.3106886744 -2.7421714344e+38
0.4456272423 0.1751353890 -0.3055039048 -2.7288270286e+38
0.4330012798 0.1902122498 -0.3042862415 -2.7690683434e+38
0.4388660789 0.1926551312 -0.2988471985 -2.7556198889e+38
0.4630442560 -0.2027352452 -0.3339861631 -2.7422227489e+38
0.4590453506 -0.1843221188 -0.3209629655 -2.7687555887e+38
0.4785290956 -0.1863313019 -0.3360421658 -2.7554119942e+38
0.4638606608 -0.1625863165 -0.3226947784 -2.7954957146e+38
0.4659454226 -0.1514968127 -0.3232259154 -2.8088401204e+38
0.4647038281 -0.1378025860 -0.3173009157 -2.8221845262e+38
0.4663311541 -0.1266925484 -0.3174226284 -2.8221847290e+38
0.4717997015 -0.1060014293 -0.3226973414 -2.8088934631e+38
0.4779810905 -0.1195466742 -0.3177672029 -2.8088934631e+38
0.4756367803 -0.0960991681 -0.3277835250 -2.8355822746e+38
0.4869812727 -0.0874555111 -0.3273624778 -2.8088934631e+38
0.4760472178 -0.0607598573 -0.3228425384 -2.8355822746e+38
0.4871366024 -0.0752803311 -0.3257504702 -2.8355822746e+38
0.4747597575 -0.0374768674 -0.3178368211 -2.8889598976e+38
0.4833774567 -0.0501494110 -0.3158893585 -2.8622710861e+38
0.4905456901 -0.0283386763 -0.3268377781 -2.8489266804e+38
0.4920077324 -0.0166795664 -0.3288073540 -2.8622710861e+38
0.4847512841 -0.0046021761 -0.3348183632 -2.8222378689e+38
0.4930633307 -0.0048791431 -0.3302823305 -2.8489266804e+38
0.4823661447 0.0302147157 -0.3304792643 -2.8222378689e+38
0.4971741438 0.0190968551 -0.3375640512 -2.8622710861e+38
0.4869233072 0.0544501990 -0.3405249119 -2.8222378689e+38
0.4963465929 0.0433023125 -0.3369450569 -2.8355822746e+38
0.4795380831 0.0644434169 -0.3275038004 -2.8088934631e+38
0.4858060479 0.0767822340 -0.3209611773 -2.8088942744e+38
0.4729987979 0.0853911936 -0.3177713752 -2.7822054629e+38
0.4807181358 0.0867657438 -0.3131695986 -2.7955498687e+38
0.4707364142 0.1075630262 -0.3171394467 -2.7555162458e+38
0.4779619575 0.1211209670 -0.3139539361 -2.7288270286e+38
0.4662866890 0.1405638605 -0.3158679008 -2.7022422659e+38
0.4773315191 0.1329424381 -0.3152272701 -2.7154826229e+38
0.4651296735 0.1519400924 -0.3165574670 -2.7154826229e+38
0.4706204236 0.1655972451 -0.3113461733 -2.7552556168e+38
0.4545462132 0.1800979376 -0.3054955602 -2.7687559943e+38
0.4658911228 0.1743089110 -0.3056516051 -2.7818923025e+38
0.4473138154 0.1979680657 -0.2985091805 -2.7555679659e+38
0.4533185363 0.2004454285 -0.2924205661 -2.7422237630e+38
0.4917557240 -0.2256169021 -0.3498536348 -2.7289306717e+38
0.4997555315 -0.2458642870 -0.3484725356 -2.7287736859e+38
0.4991330504 -0.2177608013 -0.3590102196 -2.7288791544e+38
0.5047636628 -0.2033034861 -0.3434727192 -2.7288270286e+38
0.4918540120 -0.1805392951 -0.3368494511 -2.7155341402e+38
0.5056821108 -0.1741342247 -0.3372814655 -2.7554111829e+38
0.4887679219 -0.1501337141 -0.3240739107 -2.7820999944e+38
0.5018530488 -0.1429759413 -0.3241569400 -2.7953918687e+38
0.4921573102 -0.1259978712 -0.3241719007 -2.7954969316e+38
0.5086596608 -0.1200465485 -0.3301959038 -2.7821517145e+38
0.4943034351 -0.1014744714 -0.3230029941 -2.7688602459e+38
0.5064601302 -0.0924554244 -0.3220699430 -2.7689638890e+38
0.4985136390 -0.0781547576 -0.3263774514 -2.8088934631e+38
0.5067167878 -0.0796983093 -0.3206585050 -2.7556198889e+38
0.4968807101 -0.0407317579 -0.3194277287 -2.8355822746e+38
0.5026804209 -0.0532970801 -0.3111118674 -2.7556202945e+38
0.5107551217 -0.0303885434 -0.3223242760 -2.7956535118e+38
0.5124175549 -0.0181142054 -0.3243800998 -2.7289314830e+38
0.5055762529 0.0069137719 -0.3321805596 -2.8222378689e+38
0.5172247887 -0.0059245825 -0.3317752481 -2.7155870773e+38
0.5090655088 0.0319587067 -0.3385194540 -2.8622710861e+38
0.5219294429 0.0197412129 -0.3392949104 -2.7956003719e+38
0.5107954144 0.0575749874 -0.3428580761 -2.8088934631e+38
0.5197224617 0.0584663972 -0.3373621106 -2.7954448058e+38
0.5056883693 0.0690870881 -0.3351306915 -2.8222378689e+38
0.5122671723 0.0824351832 -0.3274719715 -2.7421718400e+38
0.4979553223 0.0916832536 -0.3245631456 -2.7688610572e+38
0.5067427158 0.1061227396 -0.3215886950 -2.7154830285e+38
0.4920696616 0.1140497625 -0.3180062771 -2.7421718400e+38
0.5033770204 0.1174741760 -0.3179535270 -2.7553600712e+38
0.4868731499 0.1490189284 -0.3161311150 -2.7021382171e+38
0.4944092035 0.1512654126 -0.3100832701 -2.7019828539e+38
0.4823620319 0.1587344110 -0.3109450936 -2.7286708541e+38
0.4896475077 0.1610641927 -0.3048071861 -2.7153270568e+38
0.4703435302 0.1877075881 -0.2989943624 -2.7420671828e+38
0.4824693799 0.1817946285 -0.2987245321 -2.7420156655e+38
0.4649089277 0.1955715120 -0.2926154733 -2.7420671828e+38
0.4682639837 0.2084441036 -0.2845934033 -2.7154830285e+38
0.4563740492 0.2128751576 -0.2845252752 -2.7021386228e+38
0.4621933103 0.2153226733 -0.2776538730 -2.6754498113e+38
0.5113739967 -0.2541475892 -0.3477671742 -2.7287215601e+38
0.5272694826 -0.2494661063 -0.3480393887 -2.7684426311e+38
0.5183636546 -0.2281076461 -0.3501477838 -2.7287225742e+38
0.5308732986 -0.2359895557 -0.3492524624 -2.7552546027e+38
0.5243777633 -0.2013281137 -0.3517342806 -2.7420148542e+38
0.5400511622 -0.1943801045 -0.3515745997 -2.7152739169e+38
0.5359904170 -0.1631987244 -0.3599562049 -2.8219766315e+38
0.5424816608 -0.1801515967 -0.3518176079 -2.7551509596e+38
0.5375075340 -0.1488160193 -0.3593217134 -2.7953918687e+38
0.5578147769 -0.1422798038 -0.3660981059 -2.7420142457e+38
0.5218513012 -0.1110675558 -0.3292353153 -2.7688598402e+38
0.5310322046 -0.0994798243 -0.3212854862 -2.7820999944e+38
0.5187948942 -0.0827268288 -0.3205048442 -2.7555679659e+38
0.5312402248 -0.0722637475 -0.3182322383 -2.7688602459e+38
0.5219069123 -0.0574929118 -0.3224320412 -2.7689123717e+38
0.5336217880 -0.0461037233 -0.3193248510 -2.7822042460e+38
0.5249344110 -0.0190830491 -0.3244798183 -2.7555681688e+38
0.5360540748 -0.0332140401 -0.3220298886 -2.7555675603e+38
0.5393375158 -0.0067872144 -0.3257914186 -2.7955488546e+38
0.5401640534 0.0066334284 -0.3268244267 -2.7822563718e+38
0.5308575630 0.0331527889 -0.3333820105 -2.7956005747e+38
0.5404378176 0.0201119669 -0.3272835016 -2.7555158401e+38
0.5300744772 0.0463201627 -0.3327142596 -2.7954444002e+38
0.5420312881 0.0610815436 -0.3312141895 -2.7820999944e+38
0.5400902033 0.0743929520 -0.3293685317 -2.7953920715e+38
0.5376264453 0.0874623060 -0.3269755840 -2.7288793573e+38
0.5219449997 0.0972794741 -0.3246110082 -2.6887942170e+38
0.5312157273 0.1126641482 -0.3206273317 -2.7154830285e+38
0.5151241422 0.1210235283 -0.3175357580 -2.7420156655e+38
0.5230013728 0.1363046765 -0.3123596311 -2.7019824482e+38
0.5090484023 0.1580804735 -0.3150258660 -2.7019828539e+38
0.5169283152 0.1604215950 -0.3080518842 -2.4484391446e+38
0.5038539767 0.1682647765 -0.3094779849 -2.7019826511e+38
0.5093107224 0.1831274480 -0.3020981550 -2.3683723045e+38
0.4926592708 0.1870155036 -0.2974306941 -2.7153268540e+38
0.4968405366 0.2010752708 -0.2891222835 -2.6353119368e+38
0.4806161523 0.2035222501 -0.2843418121 -2.6886895598e+38
0.4903107882 0.2091486752 -0.2822775841 -2.6487082655e+38
0.4709893465 0.2210589945 -0.2756519914 -2.4752837250e+38
0.4730424285 0.2333130538 -0.2658224106 -2.5954344884e+38
0.5359558463 -0.2716549933 -0.3451064229 -2.7417538196e+38
0.5596302748 -0.2733405828 -0.3539447188 -2.7550982253e+38
0.5474355221 -0.2301016748 -0.3490321040 -2.7286698400e+38
0.5513218641 -0.2469472736 -0.3374067545 -2.7285655884e+38
0.5646521449 -0.2234872282 -0.3483042717 -2.6886887485e+38
0.5678054690 -0.2085668147 -0.3490231633 -2.6886887485e+38
0.5618928671 -0.1906791627 -0.3591175675 -2.7420142457e+38
0.5705890059 -0.1934431642 -0.3494478464 -2.7020331543e+38
0.5714917183 -0.1635141522 -0.3666898608 -2.7153254342e+38
0.6010210514 -0.1601078659 -0.3820421100 -2.7553586515e+38
0.5734986067 -0.1318326890 -0.3642314672 -2.7420142457e+38
0.5894210339 -0.1204754487 -0.3615491986 -2.7687030572e+38
0.5488660932 -0.0908033326 -0.3252815604 -2.7420667772e+38
0.5625354648 -0.0794581994 -0.3221245408 -2.7953918687e+38
0.5437154770 -0.0610483140 -0.3151745796 -2.7954444002e+38
0.5561268330 -0.0490716919 -0.3112546802 -2.7820995888e+38
0.5472521186 -0.0206452534 -0.3175482750 -2.7687555887e+38
0.5566315055 -0.0212065075 -0.3104761243 -2.7953405542e+38
0.5487050414 -0.0070993435 -0.3191660643 -2.7554111829e+38
0.5590906739 0.0065071220 -0.3131539226 -2.7819442255e+38
0.5495691299 0.0340271443 -0.3205367327 -2.7288270286e+38
0.5593943000 0.0204916932 -0.3136087656 -2.7287223714e+38
0.5514564514 0.0620223433 -0.3244289160 -2.7554107773e+38
0.5625461340 0.0489864945 -0.3185436726 -2.7684957710e+38
0.5494004488 0.0755667463 -0.3225460052 -2.7687030572e+38
0.5510641336 0.0901185572 -0.3260922432 -2.7288791544e+38
0.5478685498 0.1033017188 -0.3230624199 -2.7154828257e+38
0.5615776181 0.1064789891 -0.3215960264 -2.7285142739e+38
0.5441818237 0.1304287612 -0.3214495182 -2.6619490282e+38
0.5575798750 0.1344670504 -0.3198011518 -2.7019301196e+38
0.5370850563 0.1704082638 -0.3184106350 -2.5687470967e+38
0.5608271956 0.1665746123 -0.3287333250 -2.6486048252e+38
0.5330283642 0.1977212429 -0.3184293509 -2.5820908940e+38
0.5575051904 0.1961978078 -0.3297483921 -2.6087277825e+38
0.5219556689 0.2042956799 -0.3053529859 -2.5954350969e+38
0.5545028448 0.2436786592 -0.3358643651 -2.6487080627e+38
0.5077076554 0.2218323648 -0.2910227776 -2.6487605941e+38
0.5313953161 0.2399369478 -0.3067489266 -2.6220192512e+38
0.4928356707 0.2367301583 -0.2759144902 -2.6354161884e+38
0.5102676153 0.2671405971 -0.2881690860 -2.6485518881e+38
0.5015435815 0.2733359039 -0.2795358300 -2.6218630766e+38
0.5948551297 -0.3413077593 -0.3671019077 -2.6884800425e+38
0.5765286684 -0.3055199981 -0.3602639437 -2.7550984281e+38
0.5810024738 -0.2900590003 -0.3615501523 -2.7550982253e+38
0.5781272650 -0.2677854300 -0.3530135155 -2.7285655884e+38
0.5931564569 -0.2773027718 -0.3502894640 -2.7683909109e+38
0.5824968815 -0.2160718739 -0.3469835520 -2.6754483915e+38
0.5873365402 -0.2342894673 -0.3348603249 -2.7151181480e+38
0.6010894179 -0.1929360628 -0.3646968603 -2.6753964685e+38
0.6151429415 -0.2174246609 -0.3626300693 -2.7151177423e+38
0.6181365252 -0.1663641781 -0.3808581233 -2.7153254342e+38
0.6347244978 -0.1913351566 -0.3803890944 -2.7420142457e+38
0.6259322762 -0.1518587917 -0.3882308006 -2.6886366227e+38
0.6442829967 -0.1389493942 -0.3842209578 -2.7420142457e+38
0.5820963383 -0.0841617137 -0.3268133998 -2.7286698400e+38
0.6351197958 -0.0990404785 -0.3694770336 -2.7286698400e+38
0.5712808371 -0.0659981519 -0.3119149804 -2.7686519455e+38
0.5897004604 -0.0542554334 -0.3130339980 -2.7684959738e+38
0.5753665566 -0.0228029583 -0.3145222664 -2.8084764568e+38
0.5851843357 -0.0233904328 -0.3062747717 -2.8084762540e+38
0.5732752085 0.0063865213 -0.3113629818 -2.8084762540e+38
0.5869357586 -0.0086370334 -0.3079587221 -2.8083720024e+38
0.5732409954 0.0353145041 -0.3116518855 -2.7818397711e+38
0.5830396414 0.0357723311 -0.3035306334 -2.7683389880e+38
0.5705614090 0.0639290437 -0.3095221519 -2.7817876453e+38
0.5819663405 0.0504106581 -0.3027483821 -2.7550473165e+38
0.5794990659 0.0957275704 -0.3228557706 -2.7684432395e+38
0.5825428963 0.0802504867 -0.3050471544 -2.7418065538e+38
0.5807631016 0.1114461496 -0.3258836865 -2.7550988338e+38
0.6013206244 0.1167649850 -0.3299630284 -2.7284100223e+38
0.5759133101 0.1563639939 -0.3254451752 -2.6885859167e+38
0.5961232185 0.1640169024 -0.3294675946 -2.6750853364e+38
0.5913193226 0.1808467805 -0.3476912379 -2.6352082937e+38
0.6055254936 0.2036531419 -0.3460671306 -2.6085709995e+38
0.5982961655 0.2385393828 -0.3660814166 -2.6219673282e+38
0.6238390207 0.2336271852 -0.3717300892 -2.6085707967e+38
0.5891804099 0.2502533495 -0.3576811552 -2.6620003426e+38
0.6012772322 0.2750119269 -0.3544341922 -2.6750845251e+38
0.5701271296 0.2710992992 -0.3399974108 -2.6086227196e+38
0.5603007078 0.2802288532 -0.3308100104 -2.6086231253e+38
0.5397778749 0.2776192129 -0.3067938685 -2.5951746708e+38
0.5523973107 0.3045592606 -0.3080739975 -2.6085190765e+38
0.5416685343 0.3111257851 -0.2983180285 -2.5951746708e+38
0.6250990033 -0.3933006823 -0.3876584172 -2.7018757628e+38
0.6376996636 -0.3775951564 -0.3722762465 -2.6617906225e+38
0.6350969076 -0.3564610481 -0.3890088201 -2.7017723225e+38
0.6535838842 -0.3701037169 -0.3857406974 -2.7151163226e+38
0.6580260992 -0.3086022139 -0.4022461772 -2.7550471136e+38
0.6739138365 -0.3411208391 -0.3992949724 -2.7417012881e+38
0.6615205407 -0.2888457477 -0.4020172954 -2.7417544280e+38
0.6927006245 -0.3087908328 -0.4115210772 -2.7416499736e+38
0.6692962050 -0.2288441658 -0.3997164965 -2.7817872396e+38
0.7094256878 -0.2732442021 -0.4220365286 -2.7283053651e+38
0.6810572147 -0.1930926144 -0.4070734978 -2.8085800999e+38
0.7749301791 -0.2630910873 -0.4865134358 -2.7817349110e+38
0.6906518936 -0.1765594035 -0.4153195620 -2.7818912884e+38
0.7020090818 -0.1577780396 -0.3988922834 -2.7817874425e+38
0.6693451405 -0.1078494415 -0.3847999573 -2.7418067567e+38
0.6897543669 -0.1123451591 -0.3819488287 -2.7284102251e+38
0.6670365334 -0.0880669653 -0.3806965947 -2.7550473165e+38
0.6840392947 -0.0715207085 -0.3731849194 -2.7417544280e+38
0.6261795759 -0.0440231785 -0.3328735828 -2.7951320510e+38
0.6464803219 -0.0289944392 -0.3320118785 -2.7817872396e+38
0.6032078862 0.0061323349 -0.3060942888 -2.7684428339e+38
0.6247159243 0.0059306831 -0.3085706234 -2.7684426311e+38
0.6031230688 0.0370910168 -0.3063232899 -2.7151179452e+38
0.6193134189 0.0220184773 -0.3029476404 -2.7684430367e+38
0.6053010821 0.0686365440 -0.3099464774 -2.6618962939e+38
0.6232597232 0.0546734408 -0.3078485727 -2.7284619453e+38
0.6550145149 0.1142426357 -0.3679027557 -2.6618966995e+38
0.6709100604 0.0982693732 -0.3598722816 -2.6885849026e+38
0.6650562286 0.1361217946 -0.3808193803 -2.6885855110e+38
0.6591050625 0.1531924754 -0.3759773374 -2.6885855110e+38
0.6379650235 0.1634155959 -0.3540470600 -2.6752411053e+38
0.6482904553 0.1844537258 -0.3445122838 -2.6752406996e+38
0.6285167933 0.2143499404 -0.3507518768 -2.6086227196e+38
0.6473172307 0.2030271739 -0.3459212780 -2.6353115311e+38
0.6468696594 0.2656707466 -0.3787158728 -2.6085186709e+38
0.6678557992 0.2552020252 -0.3743015528 -2.5551410479e+38
0.6358972788 0.2783954144 -0.3694639206 -2.6483957136e+38
0.6415133476 0.2997783124 -0.3557693362 -2.6083624963e+38
0.5988401771 0.2884041667 -0.3328415751 -2.5818302650e+38
0.6213605404 0.3039147258 -0.3368239999 -2.5417970478e+38
0.5826920271 0.3124632239 -0.3214543462 -2.6218634823e+38
0.5983954668 0.3443917632 -0.3231197596 -2.5551414535e+38
0.6023730040 0.3926916718 -0.3378891349 -2.5818821880e+38
0.6505723000 -0.4312022328 -0.3479436040 -2.6484977341e+38
0.6675456762 -0.4042769074 -0.3811350465 -2.7017717140e+38
0.6689425707 -0.4263020754 -0.3621702194 -2.6617906225e+38
0.6899745464 -0.3756698966 -0.3954677582 -2.7283568824e+38
0.6931437254 -0.3994426727 -0.3771124482 -2.7151165254e+38
0.6945873499 -0.3546402454 -0.3955945373 -2.7683905053e+38
0.7206697464 -0.3468498290 -0.3910897970 -2.7550456939e+38
0.7301499248 -0.3077755570 -0.4202758074 -2.7816831909e+38
0.7408857346 -0.3112953901 -0.4029776454 -2.8084231141e+38
0.7587598562 -0.3016495109 -0.4462152719 -2.7817349110e+38
0.7738065720 -0.2849054039 -0.4579706788 -2.7950793168e+38
0.8514431715 -0.2717142999 -0.5304419398 -2.7683907081e+38
0.8694671392 -0.3070446849 -0.5170804858 -2.7817340997e+38
0.8655239344 -0.2489761263 -0.5413452387 -2.7416499736e+38
0.8762341738 -0.2210958749 -0.5136353970 -2.7284094138e+38
0.7228360772 -0.1420089155 -0.3919434547 -2.7950799253e+38
0.7331115007 -0.1219048277 -0.3737716675 -2.7417538196e+38
0.6961192489 -0.0728760660 -0.3607803583 -2.7417544280e+38
0.7113084793 -0.0951090679 -0.3518207073 -2.7417540224e+38
0.6921224594 -0.0526272058 -0.3558856845 -2.7417544280e+38
0.6911717653 -0.0326581299 -0.3303233981 -2.7151692597e+38
0.6598197222 -0.0121400673 -0.3227813840 -2.7550984281e+38
0.6796271205 0.0054001184 -0.3189917207 -2.7552024769e+38
0.6411945820 0.0394893214 -0.3044843674 -2.7151692597e+38
0.6727141142 0.0235630013 -0.3126006126 -2.7285134626e+38
0.6863019466 0.0813158154 -0.3505228162 -2.6886366227e+38
0.6929224133 0.0623985305 -0.3322435617 -2.7018248539e+38
0.7111081481 0.1049136221 -0.3510317206 -2.6217069021e+38
0.7148658037 0.1262585670 -0.3558322191 -2.6883768050e+38
0.6968835592 0.1429534256 -0.3649569750 -2.6619478112e+38
0.7105028033 0.1663740873 -0.3549902439 -2.6617920423e+38
0.6744439602 0.1745874733 -0.3461123109 -2.6486034055e+38
0.6936692595 0.1804835498 -0.3409475684 -2.6485518881e+38
0.6802842617 0.2384684235 -0.3595874906 -2.5952263909e+38
0.6924405098 0.2212751061 -0.3443832397 -2.6483961192e+38
0.6943481565 0.2910441756 -0.3807409406 -2.5550895306e+38
0.7284662724 0.2863368392 -0.3852878809 -2.5284526420e+38
0.7125856876 0.3274852633 -0.4037939310 -2.5684345448e+38
0.7080138922 0.3443088830 -0.3762256503 -2.4886279279e+38
0.6496460438 0.3463382125 -0.3490583897 -2.5417449220e+38
0.6927286386 0.3562405407 -0.3649891615 -2.5684333278e+38
0.6482025385 0.3915042281 -0.3568791151 -2.6216032590e+38
0.6717544198 0.3859587014 -0.3524352908 -2.6348951333e+38
0.6525151134 0.4206551015 -0.3669502735 -2.5950706220e+38
0.6534286737 0.4416359663 -0.3482679129 -2.5283479848e+38
0.6748094559 -0.4489297271 -0.3228255510 -2.6482904479e+38
0.6755727530 -0.4283363521 -0.3434811831 -2.6883751824e+38
0.7018200159 -0.4247235954 -0.3381879926 -2.6351541396e+38
0.7220012546 -0.4178314805 -0.3520064950 -2.6085697826e+38
0.7423107624 -0.4094310701 -0.3658310771 -2.6218103424e+38
0.7388916016 -0.3837555051 -0.3858083487 -2.7283570852e+38
0.7626506686 -0.3994627893 -0.3795997500 -2.6750317908e+38
0.7616742253 -0.3482691646 -0.3986414671 -2.7549943794e+38
0.8060567379 -0.3483362198 -0.4053218961 -2.7815787365e+38
0.8085476160 -0.3220257461 -0.4037184715 -2.7548899250e+38
0.8429745436 -0.3144837916 -0.4298146367 -2.7015640221e+38
0.8649816513 -0.3009393811 -0.4784517884 -2.7283564767e+38
0.8771189451 -0.2741462886 -0.4523189664 -2.7548901278e+38
0.8738001585 -0.2174657434 -0.4771534801 -2.7283051622e+38
0.9121496677 -0.2599032521 -0.4789118171 -2.7548899250e+38
0.7454187870 -0.1239099428 -0.3588426113 -2.7283572880e+38
0.7824074030 -0.1564948112 -0.3655076623 -2.7815787365e+38
0.7348691225 -0.0983547866 -0.3230618834 -2.7551497426e+38
0.7412530184 -0.0786981359 -0.3272802234 -2.7285649799e+38
0.7160007358 -0.0546844527 -0.3295310736 -2.6883761966e+38
0.7227872610 -0.0349056795 -0.3106350303 -2.7815783308e+38
0.7068129182 0.0051442152 -0.3202966452 -2.7550460995e+38
0.7344570756 -0.0155787356 -0.3198497295 -2.8081628907e+38
0.7234698534 0.0453484282 -0.3352324963 -2.7417538196e+38
0.7448459864 0.0466450676 -0.3285555243 -2.7150124766e+38
0.7273755670 0.0866623297 -0.3399331570 -2.6750317908e+38
0.7394529581 0.0878658518 -0.3253470659 -2.6749796650e+38
0.7268704176 0.1280775517 -0.3417029977 -2.6751885738e+38
0.7387131453 0.1298714876 -0.3268615603 -2.6086227196e+38
0.7296930552 0.1500054151 -0.3456746340 -2.6884289308e+38
0.7414625883 0.1520853043 -0.3305564523 -2.6085186709e+38
0.7228155136 0.2120845318 -0.3453873396 -2.6216547763e+38
0.7440961599 0.1969412118 -0.3363058567 -2.6483435878e+38
0.7305691242 0.2609984577 -0.3576102257 -2.6350513078e+38
0.7539608479 0.2472804934 -0.3492249250 -2.6615314133e+38
0.7740812302 0.3370425105 -0.4042594433 -2.5416408732e+38
0.8161815405 0.3328558803 -0.4085269570 -2.5814134615e+38
0.7714164257 0.3619372845 -0.4057078958 -2.5284526420e+38
0.7784543037 0.3903774619 -0.3871547580 -2.6346868329e+38
0.7246187925 0.3785448968 -0.3699514866 -2.5816732792e+38
0.7411551476 0.4147047997 -0.3625048399 -2.5815185244e+38
0.6843314171 0.4185980260 -0.3446536660 -2.6214981961e+38
0.6916241646 0.4212174118 -0.3263856769 -2.5151607677e+38
0.6667687297 0.4257900119 -0.3321328163 -2.5682767476e+38
0.6661847830 0.4458421171 -0.3121064901 -2.4484387390e+38
0.7155888081 -0.4619491100 -0.3295116425 -2.6216541678e+38
0.7605968118 -0.4749811590 -0.3355823755 -2.6349464478e+38
0.7503457069 -0.4121555090 -0.3454236984 -2.5819335025e+38
0.7737135887 -0.4286707640 -0.3369972706 -2.6349991820e+38
0.7924758196 -0.3911349773 -0.3722202778 -2.6350511050e+38
0.7962571383 -0.4189621210 -0.3504947424 -2.5682771533e+38
0.8338820934 -0.3633074760 -0.3982985020 -2.6882723506e+38
0.8410884142 -0.3942195177 -0.3771257997 -2.6349476647e+38
0.8363549709 -0.3358140886 -0.3966107965 -2.6749275392e+38
0.8858219385 -0.3320965171 -0.4002014995 -2.6483431821e+38
0.8558613062 -0.2895191610 -0.4056627154 -2.7282528336e+38
0.8857488632 -0.2724279165 -0.3941515684 -2.7017208051e+38
0.8886647224 -0.2471614033 -0.4259713292 -2.7415457220e+38
0.8855067492 -0.2169946879 -0.4210252762 -2.7282013163e+38
0.7947363853 -0.1588034332 -0.3480357528 -2.7682345335e+38
0.8627872467 -0.1792456210 -0.3705712557 -2.7016686794e+38
0.8135635853 -0.1157790646 -0.3596740365 -2.7149611621e+38
0.8687834740 -0.1274374425 -0.3718017340 -2.6484472309e+38
0.8023003340 -0.0658397600 -0.3489341736 -2.7017206023e+38
0.8199703693 -0.0436634421 -0.3339694142 -2.6484472309e+38
0.7887246609 0.0043353084 -0.3372648954 -2.7415970365e+38
0.8233175278 -0.0199670903 -0.3359723687 -2.6750319936e+38
0.8003920317 0.0273864456 -0.3462878466 -2.7016684765e+38
0.8243685961 0.0520536005 -0.3368974924 -2.6883240708e+38
0.7856659889 0.0720736757 -0.3357710838 -2.7016684765e+38
0.8057091236 0.0973068029 -0.3247293830 -2.7016684765e+38
0.7769163251 0.1158282161 -0.3307234049 -2.6616352593e+38
0.8120815754 0.1222083718 -0.3302706480 -2.6883761966e+38
0.7760393620 0.1842754036 -0.3343033195 -2.6617401193e+38
0.8780145645 0.1904264987 -0.3807600141 -2.6217584194e+38
0.8019794226 0.2431111932 -0.3588274717 -2.6083629020e+38
0.8865238428 0.2493863553 -0.3909746408 -2.6083624963e+38
0.8785753250 0.3362811208 -0.4254083633 -2.5681731045e+38
0.9103039503 0.3501833379 -0.4168662429 -2.5682771533e+38
0.8607639074 0.3560231328 -0.4145488143 -2.5414842930e+38
0.8712797165 0.3891293406 -0.3944618702 -2.5414842930e+38
0.8231269121 0.3905470967 -0.3914465308 -2.6080501472e+38
0.8298428059 0.4210028946 -0.3704504967 -2.5681737130e+38
0.7691397667 0.4066110253 -0.3548500538 -2.5816744961e+38
0.7720361948 0.4329051971 -0.3335666060 -2.5017642362e+38
0.7301401496 0.4274202585 -0.3304265738 -2.4486470393e+38
0.7106293440 0.4355715215 -0.3181016445 -2.4353545565e+38
0.6720559597 0.4476560950 -0.2935064435 -2.3951651647e+38
0.6973757148 0.4442828596 -0.2865009904 -2.3683201787e+38
0.6580817699 0.4529575109 -0.2627981901 -2.3816645844e+38
0.8102542162 -0.4878530204 -0.3408030272 -2.5949132305e+38
0.8277878761 -0.4105154276 -0.3410375714 -2.6482391334e+38
0.8753842115 -0.4430540800 -0.3436935544 -2.5815171046e+38
0.8702523708 -0.4112583995 -0.3676584363 -2.6482391334e+38
0.9043287039 -0.3991356194 -0.3555356264 -2.5948623217e+38
0.9070694447 -0.3690009415 -0.3540048003 -2.6082069302e+38
0.9296206236 -0.3502783477 -0.3654993773 -2.5815177131e+38
0.9180158377 -0.3155324161 -0.3876773119 -2.6482389306e+38
0.9502917528 -0.2969595194 -0.3731486201 -2.5950170765e+38
0.9350597858 -0.2615137994 -0.3940308690 -2.6482391334e+38
0.9654392004 -0.2399213612 -0.3780823946 -2.6083095592e+38
0.9217312336 -0.1672871709 -0.3789806962 -2.6482910563e+38
0.9408481121 -0.2007897347 -0.3607108593 -2.6083093564e+38
0.9423007965 -0.1136570051 -0.3901104927 -2.6349985736e+38
0.9661694765 -0.1473352760 -0.3734529614 -2.5682767476e+38
0.9318728447 -0.0828684419 -0.3821673393 -2.5949657620e+38
0.9845831394 -0.0895165503 -0.3827418685 -2.5548297129e+38
0.8919706345 -0.0234441254 -0.3544185758 -2.6348955389e+38
0.8925291300 0.0033653956 -0.3245733380 -2.6347904760e+38
0.8514913321 0.0287337154 -0.3273185492 -2.6082578391e+38
0.8782819510 0.0294437613 -0.3158311248 -2.5815171046e+38
0.8473798037 0.0783357248 -0.3253524899 -2.6082576363e+38
0.8738493919 0.0809101835 -0.3138436079 -2.5816211534e+38
0.9182119370 0.1719249934 -0.3758531809 -2.6083620907e+38
0.9411084652 0.1469517499 -0.3572552204 -2.6481348818e+38
0.9311654568 0.2344453931 -0.3880505562 -2.5949659648e+38
0.9775894880 0.2167399079 -0.3828508258 -2.6082059161e+38
0.9394961596 0.2989343703 -0.3983229399 -2.5683296847e+38
0.9735999107 0.3112534583 -0.3866934776 -2.5815700417e+38
0.9230821133 0.3538647890 -0.3926925063 -2.6082067274e+38
0.9550365210 0.3352136910 -0.3774971962 -2.5948623217e+38
0.8825407028 0.3927555680 -0.3709106445 -2.5415883418e+38
0.9147213697 0.3777359128 -0.3573988676 -2.5813613357e+38
0.8395638466 0.4243573248 -0.3476030231 -2.5548282931e+38
0.8712884188 0.4128053188 -0.3355508447 -2.5016587676e+38
0.7953486443 0.4487724602 -0.3233734369 -2.5416925934e+38
0.8260422945 0.4404017925 -0.3125626445 -2.4618342564e+38
0.7801674604 0.4607836902 -0.2889955044 -2.4483868160e+38
0.7573206425 0.4684107900 -0.2771520615 -2.3281835211e+38
0.7031387091 0.4460830092 -0.2668946385 -2.3946451237e+38
0.6827267408 0.4507102668 -0.2554036975 -2.4083018786e+38
0.6782990098 0.4679967761 -0.2332770377 -2.2884620445e+38
0.9332650900 -0.4484114051 -0.3446919322 -2.5147956843e+38
0.9962412119 -0.4520792663 -0.3436260223 -2.4478667750e+38
0.9390273094 -0.3850987256 -0.3414987326 -2.5014001669e+38
0.9740730524 -0.3689785600 -0.3253785968 -2.4345738866e+38
0.9417257309 -0.3220158815 -0.3374409080 -2.5281400901e+38
0.9742813110 -0.3030441701 -0.3205259442 -2.4613667468e+38
0.9823224545 -0.2762775123 -0.3564732075 -2.5016070475e+38
0.9946886301 -0.2791535258 -0.3293330073 -2.4481263899e+38
0.9882539511 -0.1824311912 -0.3543541431 -2.5282437332e+38
1.0312323570 -0.2259382159 -0.3450542092 -2.4349896760e+38
1.0117164850 -0.1243625358 -0.3652949333 -2.4883149704e+38
1.0862381458 -0.1720306426 -0.3711382151 -2.4482819559e+38
1.0273432732 -0.0623775646 -0.3726235628 -2.5015040129e+38
1.0824476480 -0.1016022488 -0.3670546412 -2.4214367671e+38
1.0319935083 -0.0304187257 -0.3748386502 -2.5414842930e+38
1.1493667364 -0.0363819376 -0.4009431005 -2.4748139844e+38
0.9552916288 0.0317713469 -0.3310267925 -2.5281394816e+38
0.9812697172 0.1234897301 -0.3473969698 -2.6081016645e+38
0.9931694269 0.1565556675 -0.3552131057 -2.5946532100e+38
1.0210508108 0.2612000108 -0.3758709431 -2.5814653845e+38
1.0046293736 0.2886693180 -0.3683848977 -2.5681731045e+38
0.9674607515 0.3385359943 -0.3513396382 -2.5680173356e+38
1.0274953842 0.4001133740 -0.3531138897 -2.4080406412e+38
0.9257024527 0.3810790479 -0.3320311308 -2.5279315869e+38
0.9035494328 0.3994828165 -0.3217197061 -2.4880024184e+38
0.8807809353 0.4159546196 -0.3110709786 -2.5015027959e+38
0.8843730688 0.4467138350 -0.2860662341 -2.4483344874e+38
0.8340592384 0.4431616068 -0.2890501618 -2.5016076560e+38
0.8104149103 0.4539694786 -0.2778137922 -2.4350422074e+38
0.7632501125 0.4702826440 -0.2551971674 -2.0081784121e+38
0.7929091454 0.4649941325 -0.2436627895 -2.4216982073e+38
0.7170317173 0.4800357819 -0.2327435762 -1.9815938522e+38
0.7448368073 0.4772637486 -0.2222544402 -2.3687895136e+38
0.6982369423 0.4832224548 -0.2012120336 -2.4091348772e+38
1.0328491926 -0.3271275163 -0.3164179921 -2.3411113262e+38
1.0704531670 -0.3417516947 -0.2981517315 -2.2079283033e+38
1.0943340063 -0.3151703775 -0.3067239523 -2.1812914148e+38
1.1166335344 -0.2864436209 -0.3147087693 -2.1680520719e+38
1.1237968206 -0.2532010078 -0.3548153639 -2.3145271719e+38
1.1371301413 -0.2556921244 -0.3220336437 -2.1680003517e+38
1.1280816793 -0.1801729351 -0.3539134860 -2.3145273747e+38
1.1419905424 -0.1820876151 -0.3214281797 -2.1680009602e+38
1.1235294342 -0.1065169051 -0.3497278094 -2.3278194519e+38
1.1458733082 -0.0721555874 -0.3206644058 -2.1412594145e+38
1.1960092783 -0.0385377407 -0.3832398057 -2.3812483894e+38
0.7148363590 0.4985105097 -0.1879711151 -2.9963915620e+38
1.1589754820 -0.2996843755 -0.2936218381 -1.9948358317e+38
1.1386991739 -0.2172738314 -0.2827652097 -1.9548028173e+38
1.1608200073 -0.2601152956 -0.2537725568 -1.8482564801e+38
1.1129393578 -0.1389990449 -0.2706921101 -1.9681478315e+38
1.1379895210 -0.1791536361 -0.2436414212 -1.8748933687e+38
1.1235927343 -0.1051469818 -0.2741260529 -1.9681478315e+38
1.1437036991 -0.0710752606 -0.2436759621 -1.9281667401e+38
1.1945834160 -0.0378890634 -0.3007791042 -1.9947845173e+38
1.1774626970 -0.1869688928 -0.2184046656 -2.2083457153e+38
1.2017954588 -0.1526867002 -0.1856451333 -2.9688176261e+38
1.2129818201 -0.0771860778 -0.2273329049 -2.1949493866e+38
1.2139316797 -0.1157720461 -0.1882693022 -2.9288365347e+38
0.0000000000 0.0000000000 0.0000000000 4.2108000000e+01
0.1000000000 0.0000000000 0.0000000000 4.2108000000e+01
0.0000000000 0.1000000000 0.0000000000 4.2108000000e+24
0.0000000000 0.0000000000 0.1000000000 0.0000000000e+00
