0.3710736334323883, -0.07903718203306198, -0.31244176626205444, -2.4081457040487656e+38
0.37280285358428955, -0.07192570716142654, -0.31606483459472656, -2.4615233270508877e+38
0.3705621361732483, -0.06442566961050034, -0.326574444770813, -2.43504261307236e+38
0.3786279559135437, -0.059016041457653046, -0.3333081603050232, -2.4216462843532442e+38
0.37736213207244873, -0.05184507369995117, -0.3494594097137451, -2.3951655703747166e+38
0.3842056393623352, -0.0445900559425354, -0.35036659240722656, -2.421750333114511e+38
0.38107842206954956, -0.036009348928928375, -0.3604843020439148, -2.4350947388650415e+38
0.38783854246139526, -0.028089025989174843, -0.3608984351158142, -2.4350947388650415e+38
0.3827284276485443, -0.0187427569180727, -0.3642757534980774, -2.475127956116633e+38
0.38925042748451233, -0.010321687906980515, -0.36412400007247925, -2.421750333114511e+38
0.38528215885162354, -0.0012875013053417206, -0.3730682134628296, -2.4483870188228907e+38
0.3916066884994507, 0.0076979985460639, -0.37227368354797363, -2.421750333114511e+38
0.3824634253978729, 0.025389019399881363, -0.36190301179885864, -2.4349906901037748e+38
0.38845211267471313, 0.01671222783625126, -0.3603195548057556, -2.4216982073218296e+38
0.3789342939853668, 0.04198634624481201, -0.3494277596473694, -2.4349906901037748e+38
0.3794596791267395, 0.03263460099697113, -0.32707250118255615, -2.4216982073218296e+38
0.37247467041015625, 0.05620798468589783, -0.3261089324951172, -2.4483350958543053e+38
0.37851279973983765, 0.048959724605083466, -0.32574450969696045, -2.4483350958543053e+38
0.3650760352611542, 0.06795055419206619, -0.29971134662628174, -2.39506152161345e+38
0.37206363677978516, 0.062225908041000366, -0.3042440414428711, -2.4084059273639804e+38
0.3629198372364044, 0.08211950212717056, -0.29590219259262085, -2.39506152161345e+38
0.3689059317111969, 0.07621461898088455, -0.2963915467262268, -2.3817171158629193e+38
0.3593146800994873, 0.09468194097280502, -0.2869294285774231, -2.4084059273639804e+38
0.3638920783996582, 0.09607495367527008, -0.2852056622505188, -2.3951136474061313e+38
0.37604203820228577, -0.10392457991838455, -0.3001658320426941, -2.3550285071859543e+38
0.37081754207611084, -0.092740997672081, -0.2972702383995056, -2.381664990070238e+38
0.3791622221469879, -0.08898252248764038, -0.30394917726516724, -2.3550283043618582e+38
0.3774562478065491, -0.0817481204867363, -0.3154313564300537, -2.394957472852183e+38
0.3861190676689148, -0.07706287503242493, -0.322256863117218, -2.355132353123125e+38
0.3895367681980133, -0.07047925144433975, -0.33139538764953613, -2.36842483590507e+38
0.3928990960121155, -0.06347671151161194, -0.34050244092941284, -2.3818732904168674e+38
0.3899921178817749, -0.04553899168968201, -0.3485024571418762, -2.3951136474061313e+38
0.397638738155365, -0.04734990745782852, -0.35243743658065796, -2.3551844789158064e+38
0.39383983612060547, -0.0287639070302248, -0.35912179946899414, -2.368528884666337e+38
0.39998912811279297, -0.029455354437232018, -0.357200026512146, -2.341840073165276e+38
0.3946816325187683, -0.0197739377617836, -0.36094510555267334, -2.395217696167398e+38
0.4015843868255615, -0.011060141026973724, -0.3605831265449524, -2.3551844789158064e+38
0.39581379294395447, -0.0015236567705869675, -0.36355704069137573, -2.381821164624186e+38
0.4006135165691376, 0.007683140225708485, -0.35648733377456665, -2.3818732904168674e+38
0.3911920189857483, 0.02549847960472107, -0.3471459150314331, -2.4084059273639804e+38
0.39731165766716003, 0.016761669889092445, -0.34533751010894775, -2.3817171158629193e+38
0.3805857002735138, 0.04017356410622597, -0.3104941248893738, -2.39506152161345e+38
0.3851117491722107, 0.03227424994111061, -0.3048127293586731, -2.4084580531566618e+38
0.3805965185165405, 0.05662012845277786, -0.31328004598617554, -2.4084059273639804e+38
0.38681724667549133, 0.04932461678981781, -0.3127397298812866, -2.36842483590507e+38
0.37720412015914917, 0.06314562261104584, -0.3026723861694336, -2.3551844789158064e+38
0.38511285185813904, 0.0654827430844307, -0.3101201057434082, -2.368528884666337e+38
0.375044047832489, 0.07820118218660355, -0.29909747838974, -2.3284956674147453e+38
0.38007235527038574, 0.08778984844684601, -0.299446165561676, -2.3551844789158064e+38
0.3711898624897003, 0.09166738390922546, -0.29016268253326416, -2.368528884666337e+38
0.37688732147216797, 0.10232137888669968, -0.29407835006713867, -2.368528884666337e+38
0.3680158853530884, 0.10530224442481995, -0.2846294641494751, -2.3818732904168674e+38
0.3662604093551636, 0.11183515936136246, -0.2815302014350891, -2.3817171158629193e+38
0.38907065987586975, -0.11081229895353317, -0.3045979142189026, -2.3550285071859543e+38
0.3842734694480896, -0.09055010974407196, -0.3014034628868103, -2.3550283043618582e+38
0.3901229798793793, -0.10222195833921432, -0.3042398691177368, -2.368372912936485e+38
0.39323925971984863, -0.0797867625951767, -0.3252564072608948, -2.3817171158629193e+38
0.39667201042175293, -0.08907835185527802, -0.3184943199157715, -2.3817171158629193e+38
0.40237170457839966, -0.0669943243265152, -0.35003697872161865, -2.36842483590507e+38
0.4046540856361389, -0.07570100575685501, -0.3378451466560364, -2.3550283043618582e+38
0.40600842237472534, -0.05926197022199631, -0.3595835566520691, -2.3684767588736555e+38
0.41407281160354614, -0.05120907723903656, -0.3601735234260559, -2.3950100042930566e+38
0.4070221781730652, -0.04008151590824127, -0.35897642374038696, -2.368529087490433e+38
0.4134979844093323, -0.04097727686166763, -0.3566458821296692, -2.381665801366622e+38
0.4061194658279419, -0.011130908504128456, -0.3525833487510681, -2.3552366047084877e+38
0.41374868154525757, -0.021418577060103416, -0.35484176874160767, -2.368372912936485e+38
0.4051530957221985, 0.0076745012775063515, -0.34871429204940796, -2.381925416209549e+38
0.4112358093261719, -0.0018177619203925133, -0.3458409309387207, -2.4084059273639804e+38
0.39378809928894043, 0.024817081168293953, -0.31259316205978394, -2.368528884666337e+38
0.3996315598487854, 0.025090292096138, -0.31072235107421875, -2.4216464871773403e+38
0.3892744183540344, 0.03239823132753372, -0.2986629009246826, -2.3551844789158064e+38
0.38884928822517395, 0.0404987707734108, -0.2981523275375366, -2.3551844789158064e+38
0.3896111249923706, 0.04902711510658264, -0.3017520308494568, -2.3284956674147453e+38
0.3943973779678345, 0.057941555976867676, -0.2986661195755005, -2.3551840732676143e+38
0.3906429708003998, 0.06647148728370667, -0.308235764503479, -2.3818732904168674e+38
0.3981167674064636, 0.07739139348268509, -0.31379175186157227, -2.4084059273639804e+38
0.3910110294818878, 0.08432071655988693, -0.3137565851211548, -2.408509976125247e+38
0.39505428075790405, 0.09367518872022629, -0.3089924454689026, -2.39506152161345e+38
0.3845953047275543, 0.1062924787402153, -0.3008382320404053, -2.4084059273639804e+38
0.39180251955986023, 0.10034613311290741, -0.3014812469482422, -2.39506152161345e+38
0.38134294748306274, 0.11221112310886383, -0.29311615228652954, -2.421750333114511e+38
0.3843151032924652, 0.12088944017887115, -0.28713297843933105, -2.4350947388650415e+38
0.4000529646873474, -0.12516075372695923, -0.30313581228256226, -2.3550285071859543e+38
0.401401549577713, -0.11632027477025986, -0.3031993508338928, -2.3550285071859543e+38
0.39808210730552673, -0.09674946963787079, -0.30586254596710205, -2.3683727101123888e+38
0.40543532371520996, -0.10002629458904266, -0.3079150319099426, -2.3817171158629193e+38
0.40415266156196594, -0.09217608720064163, -0.3210456967353821, -2.3817171158629193e+38
0.4065803289413452, -0.08416042476892471, -0.32533836364746094, -2.3683727101123888e+38
0.4212151765823364, -0.08136235177516937, -0.3439497947692871, -2.3550283043618582e+38
0.42575639486312866, -0.07357662916183472, -0.35415273904800415, -2.3683727101123888e+38
0.43022096157073975, -0.0652754083275795, -0.3643084168434143, -2.3683727101123888e+38
0.4297897219657898, -0.0543941855430603, -0.36109858751296997, -2.3550287100100503e+38
0.4201244115829468, -0.04189372807741165, -0.35413658618927, -2.3282881783645e+38
0.4282975196838379, -0.033028192818164825, -0.3539024591445923, -2.3149437726139694e+38
0.4172000288963318, -0.011599196121096611, -0.34238559007644653, -2.3683727101123888e+38
0.42509087920188904, -0.02210666425526142, -0.34402889013290405, -2.301650884183832e+38
0.4106689691543579, 0.007718469947576523, -0.3228551149368286, -2.3817171158629193e+38
0.41666752099990845, -0.0015946775674819946, -0.3197491765022278, -2.3550283043618582e+38
0.4040077328681946, 0.025173107162117958, -0.3040514588356018, -2.4216464871773403e+38
0.410139262676239, 0.01662217453122139, -0.30178922414779663, -2.3816132699257486e+38
0.4006337523460388, 0.03323247283697128, -0.29488688707351685, -2.4084059273639804e+38
0.40015822649002075, 0.04163007438182831, -0.2943306565284729, -2.4084059273639804e+38
0.39861178398132324, 0.058206528425216675, -0.2922293543815613, -2.3418396675170837e+38
0.4053017497062683, 0.0506984144449234, -0.2912653684616089, -2.3551840732676143e+38
0.4005416929721832, 0.0677734836935997, -0.29946011304855347, -2.4084059273639804e+38
0.4082925319671631, 0.07890601456165314, -0.30426663160324097, -2.3416838986113277e+38
0.4024568200111389, 0.08694972097873688, -0.3091629147529602, -2.3683727101123888e+38
0.40836769342422485, 0.08830639719963074, -0.3066093325614929, -2.3817171158629193e+38
0.3999723792076111, 0.11356648802757263, -0.3099844455718994, -2.3416838986113277e+38
0.4114893972873688, 0.10994643718004227, -0.32061803340911865, -2.3416838986113277e+38
0.39771196246147156, 0.12127794325351715, -0.3064168691635132, -2.3416838986113277e+38
0.40412023663520813, 0.13397254049777985, -0.30930137634277344, -2.3817171158629193e+38
0.38981667160987854, 0.13261878490447998, -0.28931689262390137, -2.3683727101123888e+38
0.39529213309288025, 0.1448373943567276, -0.2909843921661377, -2.3550283043618582e+38
0.4132603406906128, -0.14264430105686188, -0.30570125579833984, -2.3817171158629193e+38
0.41075289249420166, -0.12212937325239182, -0.31033533811569214, -2.3683723044641967e+38
0.4185916781425476, -0.12618355453014374, -0.31194543838500977, -2.3550283043618582e+38
0.4150986075401306, -0.10512805730104446, -0.3152797222137451, -2.3815609413089712e+38
0.4232426583766937, -0.10873647034168243, -0.3171486258506775, -2.3948532212668204e+38
0.42864349484443665, -0.10221974551677704, -0.32794713973999023, -2.4081457040487656e+38
0.43164747953414917, -0.09352555871009827, -0.3327271342277527, -2.421490109799296e+38
0.4277707040309906, -0.0829196646809578, -0.3406808376312256, -2.3550283043618582e+38
0.43703949451446533, -0.07517983764410019, -0.34132474660873413, -2.394957472852183e+38
0.4418795704841614, -0.06674757599830627, -0.35130971670150757, -2.39506152161345e+38
0.44402408599853516, -0.05672533065080643, -0.3547590970993042, -2.395061724437546e+38
0.4330105781555176, -0.03316711634397507, -0.34506118297576904, -2.354976989865561e+38
0.4409113824367523, -0.04476749897003174, -0.3454204201698303, -2.3550285071859543e+38
0.43671876192092896, -0.022827407345175743, -0.3327535390853882, -2.368372912936485e+38
0.43330103158950806, -0.012189026921987534, -0.3236137628555298, -2.39506152161345e+38
0.41978052258491516, 0.007694871164858341, -0.3083077073097229, -2.381665192894334e+38
0.42586109042167664, -0.001714874990284443, -0.3048756718635559, -2.3817173186870154e+38
0.41461101174354553, 0.01666085794568062, -0.29498404264450073, -2.3816132699257486e+38
0.4190331697463989, 0.02564118057489395, -0.2882711887359619, -2.3949055498835978e+38
0.4125458598136902, 0.03410723805427551, -0.2904757857322693, -2.3683727101123888e+38
0.4181457757949829, 0.04342909902334213, -0.2873767018318176, -2.3949055498835978e+38
0.41027727723121643, 0.059987738728523254, -0.28762054443359375, -2.3418396675170837e+38
0.4173426628112793, 0.05222085118293762, -0.2863888144493103, -2.4082497528100323e+38
0.41070687770843506, 0.06913407891988754, -0.2902536392211914, -2.3416838986113277e+38
0.4187154769897461, 0.0804843008518219, -0.29427409172058105, -2.3816130671016526e+38
0.4144032895565033, 0.08969096839427948, -0.3038708567619324, -2.3817171158629193e+38
0.41425490379333496, 0.0992850810289383, -0.30582964420318604, -2.3683727101123888e+38
0.42799025774002075, 0.11634848266839981, -0.3248027563095093, -2.3151512616642147e+38
0.4296228289604187, 0.1284591108560562, -0.33202213048934937, -2.3284956674147453e+38
0.41745319962501526, 0.14334549009799957, -0.32704073190689087, -2.395061724437546e+38
0.42669978737831116, 0.13712772727012634, -0.32778310775756836, -2.368372912936485e+38
0.4087025821208954, 0.14533543586730957, -0.3065298795700073, -2.39506152161345e+38
0.411163866519928, 0.15477803349494934, -0.2980037331581116, -2.3416841014354237e+38
0.406015545129776, 0.15968291461467743, -0.28821319341659546, -2.3550285071859543e+38
0.4291502833366394, -0.15199096500873566, -0.30776453018188477, -2.3817169130388233e+38
0.425136923789978, -0.14014148712158203, -0.31313908100128174, -2.4084059273639804e+38
0.43524789810180664, -0.13474425673484802, -0.3146091103553772, -2.368372912936485e+38
0.4341128170490265, -0.11440335959196091, -0.3246878385543823, -2.394957675676279e+38
0.43927812576293945, -0.12677259743213654, -0.32058918476104736, -2.3817173186870154e+38
0.4468124508857727, -0.10959094017744064, -0.3317486047744751, -2.3548729411042943e+38
0.45027652382850647, -0.1004105806350708, -0.33687645196914673, -2.3549248640728796e+38
0.4439968466758728, -0.07666362076997757, -0.33769941329956055, -2.3683207871438034e+38
0.4508037567138672, -0.08928725868463516, -0.33549875020980835, -2.3950100042930566e+38
0.4487401843070984, -0.056886762380599976, -0.34504514932632446, -2.3683727101123888e+38
0.45373237133026123, -0.06827577203512192, -0.3377789258956909, -2.328443947270256e+38
0.4448482394218445, -0.03411758691072464, -0.3330778479576111, -2.368372912936485e+38
0.4503820836544037, -0.04512399435043335, -0.327018141746521, -2.3683213956160915e+38
0.43589258193969727, -0.011990327388048172, -0.3104623556137085, -2.368372912936485e+38
0.4462581276893616, -0.023109329864382744, -0.3156965374946594, -2.354976989865561e+38
0.43093881011009216, 0.007638287730515003, -0.2982974052429199, -2.3416321784668384e+38
0.43717265129089355, -0.0020023025572299957, -0.2944672107696533, -2.2882549611129083e+38
0.42535579204559326, 0.025936782360076904, -0.28562551736831665, -2.394801501122331e+38
0.4319043457508087, 0.01695769652724266, -0.2826879024505615, -2.3015468354225654e+38
0.4244154989719391, 0.044056057929992676, -0.2846900224685669, -2.36811268962127e+38
0.4314556121826172, 0.03549569845199585, -0.28247952461242676, -2.3015468354225654e+38
0.42246556282043457, 0.06184796988964081, -0.28228455781936646, -2.314787192411829e+38
0.429918110370636, 0.053810395300388336, -0.280742347240448, -2.3282356469236265e+38
0.42289888858795166, 0.071310855448246, -0.2847450375556946, -2.3282354440995304e+38
0.4231002628803253, 0.08084341883659363, -0.2869054079055786, -2.3549242556005915e+38
0.43324458599090576, 0.09400847554206848, -0.2944350242614746, -2.328339492860797e+38
0.4329829514026642, 0.10403787344694138, -0.29602789878845215, -2.328339492860797e+38
0.4362022280693054, 0.13043932616710663, -0.3282182812690735, -2.2884624501631536e+38
0.4428895115852356, 0.1324496567249298, -0.32417017221450806, -2.275118044412623e+38
0.43206676840782166, 0.14967592060565948, -0.3247947096824646, -2.368372912936485e+38
0.4384866952896118, 0.15188908576965332, -0.3204711675643921, -2.2616176669322405e+38
0.4325225353240967, 0.15793663263320923, -0.3099730610847473, -2.2883064784333016e+38
0.42658188939094543, 0.16343912482261658, -0.2995535135269165, -2.3149952899343627e+38
0.4534193277359009, -0.19628368318080902, -0.3335351347923279, -2.328339492860797e+38
0.4379904270172119, -0.16974453628063202, -0.31370413303375244, -2.328339492860797e+38
0.4491357207298279, -0.16493897140026093, -0.31511759757995605, -2.3416838986113277e+38
0.4414653778076172, -0.1368771642446518, -0.3097277283668518, -2.3550283043618582e+38
0.45046573877334595, -0.1414441615343094, -0.3103974461555481, -2.328339492860797e+38
0.4498007297515869, -0.1204066351056099, -0.32165175676345825, -2.354976787041465e+38
0.4550260305404663, -0.1332506537437439, -0.3166894316673279, -2.3416838986113277e+38
0.45368409156799316, -0.11153105646371841, -0.3271973133087158, -2.3416325841150305e+38
0.46452566981315613, -0.10411392897367477, -0.3277076482772827, -2.301651289832024e+38
0.4582922160625458, -0.0797097384929657, -0.3297053575515747, -2.3417887586689786e+38
0.46815192699432373, -0.09432880580425262, -0.33269864320755005, -2.3282881783645e+38
0.458161860704422, -0.057260043919086456, -0.32574671506881714, -2.288515184428123e+38
0.46297958493232727, -0.06866300106048584, -0.3180149793624878, -2.354977395513753e+38
0.44283682107925415, -0.03151284158229828, -0.29071247577667236, -2.3416327869391265e+38
0.4524851143360138, -0.04325737804174423, -0.29384106397628784, -2.328288989660884e+38
0.4442403316497803, -0.021939458325505257, -0.29282045364379883, -2.3416327869391265e+38
0.45235273241996765, -0.012640051543712616, -0.291032075881958, -2.328288786836788e+38
0.44031786918640137, 0.007610101252794266, -0.2833777666091919, -2.3416845070836158e+38
0.4487502872943878, -0.0023008612915873528, -0.28344398736953735, -2.328288584012692e+38
0.4384172558784485, 0.02654743380844593, -0.2797122597694397, -2.3416841014354237e+38
0.4452492594718933, 0.01722506247460842, -0.27634382247924805, -2.2749101497141857e+38
0.4373602271080017, 0.04535031318664551, -0.2786927819252014, -2.3149952899343627e+38
0.44474512338638306, 0.036471374332904816, -0.2760887145996094, -2.3149433669657773e+38
0.43640273809432983, 0.05462987720966339, -0.2776005268096924, -2.3283396956848932e+38
0.4371183216571808, 0.06446190178394318, -0.28027504682540894, -2.3149431641416813e+38
0.43775755167007446, 0.08436813205480576, -0.28465503454208374, -2.314891038349e+38
0.44629400968551636, 0.07640668004751205, -0.2833523750305176, -2.3281313953382637e+38
0.4397619962692261, 0.09550026059150696, -0.2908438444137573, -2.328339492860797e+38
0.4505764842033386, 0.1100098192691803, -0.29771649837493896, -2.368372912936485e+38
0.4496800899505615, 0.13448859751224518, -0.31986576318740845, -2.2750661214440378e+38
0.4573712944984436, 0.1254419982433319, -0.31420350074768066, -2.368372912936485e+38
0.44499140977859497, 0.15412738919258118, -0.3158901333808899, -2.2616174641081444e+38
0.45549720525741577, 0.14761453866958618, -0.3160703778266907, -2.328339492860797e+38
0.4347262382507324, 0.16798707842826843, -0.29999011754989624, -2.3550283043618582e+38
0.4474581182003021, 0.16474910080432892, -0.3057326078414917, -2.4084059273639804e+38
0.4263090491294861, 0.17067627608776093, -0.2845395803451538, -2.3416838986113277e+38
0.42973601818084717, 0.18215790390968323, -0.27859193086624146, -2.354976178569177e+38
0.4936434030532837, -0.2328360378742218, -0.3755212426185608, -2.3550285071859543e+38
0.46923768520355225, -0.19538410007953644, -0.3422853350639343, -2.3683727101123888e+38
0.47852909564971924, -0.18633130192756653, -0.3360421657562256, -2.3550283043618582e+38
0.4628310203552246, -0.14879187941551208, -0.316914439201355, -2.3416838986113277e+38
0.4727576971054077, -0.15381671488285065, -0.31714314222335815, -2.3550283043618582e+38
0.4663311541080475, -0.12669254839420319, -0.31742262840270996, -2.3416841014354237e+38
0.47332900762557983, -0.12880687415599823, -0.31183040142059326, -2.368372912936485e+38
0.47179970145225525, -0.10600142925977707, -0.32269734144210815, -2.314892255293576e+38
0.47916391491889954, -0.1079101637005806, -0.3173856735229492, -2.3814581094922807e+38
0.47608017921447754, -0.08430345356464386, -0.3264715075492859, -2.3416319756427424e+38
0.4832228422164917, -0.0978919267654419, -0.3225638270378113, -2.381509626812674e+38
0.47787874937057495, -0.0714687705039978, -0.30879563093185425, -2.3282350384513384e+38
0.47499391436576843, -0.05890832096338272, -0.30196696519851685, -2.3015464297743733e+38
0.4595392942428589, -0.04423093795776367, -0.2898626923561096, -2.328288989660884e+38
0.46877142786979675, -0.03505820035934448, -0.28831231594085693, -2.3148405351490868e+38
0.45948946475982666, -0.013067079707980156, -0.2872803807258606, -2.3015482551912376e+38
0.46926337480545044, -0.013817358762025833, -0.28778237104415894, -2.3014961293985562e+38
0.4563177227973938, 0.00748634897172451, -0.28071749210357666, -2.328287975540404e+38
0.46527546644210815, -0.002938595600426197, -0.28021615743637085, -2.3415285353537637e+38
0.45430487394332886, 0.01745612360537052, -0.27695417404174805, -2.3282356469236265e+38
0.4661145508289337, 0.017795849591493607, -0.28162091970443726, -2.354872332632006e+38
0.4515874683856964, 0.036973677575588226, -0.27253609895706177, -2.36811268962127e+38
0.46229255199432373, 0.04834367334842682, -0.2761554718017578, -2.3680088436840993e+38
0.45487532019615173, 0.06795598566532135, -0.28153669834136963, -2.328027346576997e+38
0.4619092047214508, 0.06902792304754257, -0.27746957540512085, -2.3413204378312303e+38
0.45536574721336365, 0.07850319147109985, -0.283841609954834, -2.3280794723696783e+38
0.462383508682251, 0.0797535702586174, -0.2796670198440552, -2.3279762349047958e+38
0.4550354480743408, 0.11036902666091919, -0.28868407011032104, -2.368268864175218e+38
0.46237289905548096, 0.10132309794425964, -0.28299081325531006, -2.341424283768401e+38
0.4644436538219452, 0.12739785015583038, -0.30951422452926636, -2.354976381393273e+38
0.4706133008003235, 0.14075793325901031, -0.30528879165649414, -2.3280792695455823e+38
0.4623710811138153, 0.1498250663280487, -0.31104177236557007, -2.3549242556005915e+38
0.4677410125732422, 0.16324687004089355, -0.30583351850509644, -2.3547680810466434e+38
0.4565093219280243, 0.16945062577724457, -0.305839478969574, -2.4083018786027137e+38
0.46308737993240356, 0.1718306690454483, -0.3002331256866455, -2.368112486797174e+38
0.44469088315963745, 0.18256507813930511, -0.28895455598831177, -2.3682165355584407e+38
0.4481121301651001, 0.19472452998161316, -0.2820262312889099, -2.1413618406235175e+38
0.5055906176567078, -0.24101074039936066, -0.376213014125824, -2.341736227228105e+38
0.5095425248146057, -0.25725945830345154, -0.3663792014122009, -2.3414764095610823e+38
0.5159682035446167, -0.2303360253572464, -0.36785888671875, -2.3413717523275275e+38
0.5139548182487488, -0.21202602982521057, -0.35971003770828247, -2.341423878120209e+38
0.4918540120124817, -0.1805392950773239, -0.3368494510650635, -2.3682167383825367e+38
0.5099484920501709, -0.17761515080928802, -0.34467077255249023, -2.341423878120209e+38
0.49244141578674316, -0.1529514342546463, -0.330719530582428, -2.368269066999314e+38
0.48709094524383545, -0.135650634765625, -0.3179577589035034, -2.354976584217369e+38
0.4852987229824066, -0.12160136550664902, -0.3119593858718872, -2.3948534240909164e+38
0.48660987615585327, -0.1098378598690033, -0.311759352684021, -2.394801501122331e+38
0.48827195167541504, -0.08608600497245789, -0.31036221981048584, -2.3547686895189315e+38
0.49524515867233276, -0.09979213774204254, -0.3054500222206116, -2.288202429672035e+38
0.48247218132019043, -0.07168316096067429, -0.29848265647888184, -2.3547686895189315e+38
0.4933028817176819, -0.06244207173585892, -0.29701972007751465, -2.2881513179998336e+38
0.49303489923477173, -0.05055534094572067, -0.2953141927719116, -2.3146843605951387e+38
0.4865201711654663, -0.03738023340702057, -0.2836359143257141, -2.3412169975422516e+38
0.4767548441886902, -0.014265591278672218, -0.2834223508834839, -2.3547690951671236e+38
0.48562484979629517, -0.025990044698119164, -0.2813844084739685, -2.3412165918940596e+38
0.47517603635787964, -0.0033579180017113686, -0.28034836053848267, -2.3547682838707394e+38
0.4807763695716858, 0.007305707782506943, -0.2724109888076782, -2.3015472410707574e+38
0.47338321805000305, 0.02853812649846077, -0.2774377465248108, -2.3680603610044926e+38
0.48104289174079895, 0.018094927072525024, -0.27289485931396484, -2.274806303777015e+38
0.4728638529777527, 0.0390944629907608, -0.2770187258720398, -2.3680086408600032e+38
0.48297828435897827, 0.04003291577100754, -0.2767619490623474, -2.3547682838707394e+38
0.4740604758262634, 0.07170800119638443, -0.28176945447921753, -2.3011320601461707e+38
0.4832943379878998, 0.06220100820064545, -0.27883797883987427, -2.3413204378312303e+38
0.4774385392665863, 0.09534946829080582, -0.29055100679397583, -2.3279245147603064e+38
0.48474764823913574, 0.08525345474481583, -0.28364694118499756, -2.287891500332811e+38
0.47964227199554443, 0.11979517340660095, -0.29830753803253174, -2.3280794723696783e+38
0.4876033663749695, 0.10988494753837585, -0.2917165160179138, -2.2879951434458855e+38
0.4923415780067444, 0.13708089292049408, -0.30399972200393677, -2.2347732893495194e+38
0.4911630153656006, 0.14912661910057068, -0.3045769929885864, -2.301079123057105e+38
0.4775993227958679, 0.16797810792922974, -0.30544108152389526, -2.341424283768401e+38
0.4896475076675415, 0.16106419265270233, -0.304807186126709, -2.314579703361584e+38
0.4674326181411743, 0.18498991429805756, -0.2936021685600281, -2.247961926194294e+38
0.4793696701526642, 0.17916454374790192, -0.2933306097984314, -2.3281845352514253e+38
0.4565995931625366, 0.19997358322143555, -0.2808604836463928, -2.2747022550157482e+38
0.46828973293304443, 0.19518257677555084, -0.2808341979980469, -2.301339549196416e+38
0.4566473364830017, 0.20907263457775116, -0.26757049560546875, -2.3279760320806997e+38
0.5200960636138916, -0.24669234454631805, -0.3578110933303833, -2.3279758292566037e+38
0.5289771556854248, -0.26894789934158325, -0.35576510429382324, -2.3277683402063583e+38
0.5166655778884888, -0.21030345559120178, -0.34294629096984863, -2.3279754236084116e+38
0.5256374478340149, -0.23085561394691467, -0.3408447504043579, -2.354405025914738e+38
0.5222077369689941, -0.1838746815919876, -0.3443533182144165, -2.3012872205796386e+38
0.5224214792251587, -0.1958152800798416, -0.32766443490982056, -2.28778664027516e+38
0.5055962800979614, -0.1426345854997635, -0.31085407733917236, -2.287943017653204e+38
0.5148114562034607, -0.16010630130767822, -0.30907952785491943, -2.2878908918605227e+38
0.5191799998283386, -0.13486544787883759, -0.31017327308654785, -2.234565394651082e+38
0.5168720483779907, -0.11983770877122879, -0.3042454123497009, -2.2479615205461018e+38
0.502957284450531, -0.10160945355892181, -0.2993272542953491, -2.3013910665168093e+38
0.5117374658584595, -0.09106502681970596, -0.29247117042541504, -2.2479100032257085e+38
0.5011755228042603, -0.0637269839644432, -0.291442334651947, -2.2747026606639403e+38
0.5088809728622437, -0.07729833573102951, -0.2865625023841858, -2.247962331842486e+38
0.50419682264328, -0.05255173146724701, -0.2949025630950928, -2.2879955490940776e+38
0.5116902589797974, -0.041252247989177704, -0.28707683086395264, -2.274495171613695e+38
0.4963103234767914, -0.027163034304976463, -0.28086745738983154, -2.3145281860411906e+38
0.5029054880142212, -0.016000140458345413, -0.27284640073776245, -2.2745470945822803e+38
0.4876853823661804, -0.0036851875483989716, -0.2666337490081787, -2.2614625064987725e+38
0.49612802267074585, 0.007203262764960527, -0.2624328136444092, -2.2347738978218075e+38
0.49127131700515747, 0.029499199241399765, -0.2723149061203003, -2.30133833225184e+38
0.49642521142959595, 0.018403099849820137, -0.2629162073135376, -2.2613061291207284e+38
0.49822157621383667, 0.05330648273229599, -0.28419041633605957, -2.3279230949916342e+38
0.5138177871704102, 0.04335939139127731, -0.2890917658805847, -2.261253394855759e+38
0.49669206142425537, 0.06461481004953384, -0.2827121615409851, -2.327767326085878e+38
0.5046514868736267, 0.06561906635761261, -0.2771869897842407, -2.2344615487139113e+38
0.4982913136482239, 0.08874661475419998, -0.28763526678085327, -2.2877353257788627e+38
0.5063461065292358, 0.10250072181224823, -0.2835800051689148, -2.261098842894579e+38
0.5041955709457397, 0.12864986062049866, -0.3023495674133301, -2.2611501573908763e+38
0.512725830078125, 0.11793264746665955, -0.29486823081970215, -2.247806157288538e+38
0.5020034909248352, 0.1535259485244751, -0.3036879897117615, -2.2611501573908763e+38
0.514624834060669, 0.14532333612442017, -0.30201709270477295, -2.2610465142778016e+38
0.49697941541671753, 0.16340447962284088, -0.29832786321640015, -2.3146318291542652e+38
0.5021687746047974, 0.17773538827896118, -0.29101991653442383, -2.5417990760211807e+38
0.48614874482154846, 0.18159618973731995, -0.28668391704559326, -2.234877743758978e+38
0.4901081621646881, 0.19514283537864685, -0.2784816026687622, -2.5151102645201196e+38
0.47750627994537354, 0.20052236318588257, -0.27910315990448, -2.2347736949977115e+38
0.48699861764907837, 0.2060122787952423, -0.27698785066604614, -2.0346076087397533e+38
0.46798932552337646, 0.21774370968341827, -0.2704801559448242, -2.2745466889340882e+38
0.4699658751487732, 0.22975406050682068, -0.2607317566871643, -2.221169471580158e+38
0.5576180219650269, -0.3099152147769928, -0.36110490560531616, -2.127966931673074e+38
0.5419135093688965, -0.27821084856987, -0.3543868064880371, -2.261098437246387e+38
0.5471954345703125, -0.2607406675815582, -0.33582156896591187, -2.154655540350039e+38
0.536505401134491, -0.2202886939048767, -0.3325764536857605, -2.2878391717160334e+38
0.5439232587814331, -0.22297446429729462, -0.32274341583251953, -2.1547595891113056e+38
0.532986044883728, -0.18537253141403198, -0.32000720500946045, -2.2611499545667803e+38
0.5372388362884521, -0.20100130140781403, -0.30959898233413696, -2.128018854641659e+38
0.5180915594100952, -0.15949708223342896, -0.29498839378356934, -2.261149346094492e+38
0.5325362682342529, -0.15216925740242004, -0.2939056158065796, -2.181239897441641e+38
0.5288774967193604, -0.12407981604337692, -0.3028561472892761, -2.2478053459921537e+38
0.5349457263946533, -0.13926208019256592, -0.2946782112121582, -2.1812401002657372e+38
0.5262539982795715, -0.10900182276964188, -0.29697299003601074, -2.2212211917246474e+38
0.5396716594696045, -0.09949734807014465, -0.29480069875717163, -2.088037966006845e+38
0.5243381261825562, -0.06864409148693085, -0.2892882823944092, -2.194585317312652e+38
0.5362863540649414, -0.08452024310827255, -0.2886285185813904, -2.0746939659045065e+38
0.5278074145317078, -0.05676247179508209, -0.2929290533065796, -2.194585520136748e+38
0.535642147064209, -0.044689424335956573, -0.2841876745223999, -2.0479540427312442e+38
0.5223301649093628, -0.0302052590996027, -0.28350573778152466, -2.1943768141419263e+38
0.5364702939987183, -0.018932150676846504, -0.28394192457199097, -2.114415848168682e+38
0.5061010718345642, -0.004388193599879742, -0.26006293296813965, -2.1680520718932508e+38
0.518053412437439, 0.007020710967481136, -0.2592267394065857, -2.0080770000336007e+38
0.5131667852401733, 0.03078254498541355, -0.270013689994812, -2.11472657468381e+38
0.5283241271972656, 0.01932496204972267, -0.27277320623397827, -1.9814918316456143e+38
0.5292643308639526, 0.04496115446090698, -0.2928330898284912, -2.0746935602563144e+38
0.5442665219306946, 0.05982253700494766, -0.29515761137008667, -1.994836237396145e+38
0.5261039137840271, 0.06989683955907822, -0.29001861810684204, -2.101278931468397e+38
0.5358871221542358, 0.08440244942903519, -0.2860633134841919, -1.9815445659105838e+38
0.521088719367981, 0.10684658586978912, -0.2869250178337097, -2.127967337321266e+38
0.5328425168991089, 0.09663327783346176, -0.28330713510513306, -1.9682003629841493e+38
0.5274571776390076, 0.13641875982284546, -0.29972416162490845, -2.088038168830941e+38
0.5356992483139038, 0.13848817348480225, -0.29232966899871826, -2.0080770000336007e+38
0.5173158645629883, 0.1580733060836792, -0.28980404138565063, -2.0478485742013052e+38
0.5305436849594116, 0.14969007670879364, -0.2875036597251892, -2.021265028406087e+38
0.515341579914093, 0.17056237161159515, -0.2895626425743103, -2.101380546340511e+38
0.5228469371795654, 0.17294315993785858, -0.2818711996078491, -2.1814987009881838e+38
0.5036234855651855, 0.20360565185546875, -0.2813684940338135, -2.6621583426188823e+38
0.5173824429512024, 0.19744734466075897, -0.2799926996231079, -2.7823087003976663e+38
0.4931657910346985, 0.22246883809566498, -0.2725844979286194, -2.0480572801961268e+38
0.5105582475662231, 0.2208784818649292, -0.2768811583518982, -1.8348585288232462e+38
0.4818776249885559, 0.23935778439044952, -0.2628556489944458, -2.1278111627673178e+38
0.49093061685562134, 0.24554690718650818, -0.25946861505508423, -2.0746428542323053e+38
0.5814271569252014, -0.3476216793060303, -0.35450947284698486, -2.0615582661487975e+38
0.5865986943244934, -0.3320954144001007, -0.35606980323791504, -2.034817531679151e+38
0.5604913234710693, -0.2696121335029602, -0.3332606554031372, -2.0215242376008218e+38
0.5838003158569336, -0.3082357347011566, -0.3472943902015686, -2.0747986231380613e+38
0.5628312826156616, -0.2356632798910141, -0.32812297344207764, -2.0481609233092015e+38
0.5722874402999878, -0.2581566274166107, -0.32337385416030884, -2.0747986231380613e+38
0.5337849855422974, -0.1796668916940689, -0.2824764847755432, -2.0747978118416772e+38
0.5627220869064331, -0.21472440659999847, -0.3037486672401428, -2.048213860398267e+38
0.5401992797851562, -0.1544521003961563, -0.2853727340698242, -2.074746294521284e+38
0.5399664640426636, -0.1664106547832489, -0.269264817237854, -2.088194343384889e+38
0.5450326204299927, -0.1282348930835724, -0.2869299054145813, -2.0746424485841132e+38
0.5530998706817627, -0.13030537962913513, -0.278342068195343, -2.101435917318729e+38
0.5524762272834778, -0.10310086607933044, -0.2925572395324707, -2.0879868543346438e+38
0.5643774271011353, -0.1210659071803093, -0.29000526666641235, -2.0747990287862534e+38
0.5532189607620239, -0.08919300138950348, -0.29186534881591797, -2.0746424485841132e+38
0.5668014287948608, -0.07806314527988434, -0.28808504343032837, -2.1013316657333664e+38
0.5531708002090454, -0.06127304583787918, -0.2891894578933716, -2.0348698602959285e+38
0.5656711459159851, -0.04926992207765579, -0.2845872640609741, -2.074746902993572e+38
0.5532011985778809, -0.020341308787465096, -0.28689706325531006, -2.0214735315768126e+38
0.5642582774162292, -0.03499802201986313, -0.2821546196937561, -2.008233174587549e+38
0.5557247400283813, 0.006602762266993523, -0.28952252864837646, -2.021525454545398e+38
0.5682597160339355, -0.007503030821681023, -0.2859591245651245, -2.0612984484817748e+38
0.5560512542724609, 0.020205384120345116, -0.28998076915740967, -2.021525454545398e+38
0.5649653673171997, 0.03423518314957619, -0.2822301983833313, -2.008129328650378e+38
0.5589786767959595, 0.04789675772190094, -0.2943609952926636, -2.0081810487948674e+38
0.5710068941116333, 0.06320959329605103, -0.290488600730896, -2.0481625459019697e+38
0.5552326440811157, 0.07487338781356812, -0.2912532687187195, -2.021525454545398e+38
0.5613934993743896, 0.08934645354747772, -0.28103500604629517, -2.034766014358758e+38
0.5452756285667419, 0.11318663507699966, -0.2825886607170105, -2.0614033085394256e+38
0.5578781962394714, 0.10233041644096375, -0.27810555696487427, -2.0347658115346618e+38
0.5439639091491699, 0.14056125283241272, -0.28452008962631226, -2.0612984484817748e+38
0.5574971437454224, 0.13065147399902344, -0.2807769179344177, -2.0879868543346438e+38
0.5366350412368774, 0.16500551998615265, -0.2794969081878662, -2.1146740432429366e+38
0.5506693124771118, 0.15630735456943512, -0.27644211053848267, -2.1546036173814535e+38
0.5356626510620117, 0.19356799125671387, -0.28349757194519043, -2.8622181490505173e+38
0.5549434423446655, 0.18881870806217194, -0.28650611639022827, -2.2614081496410348e+38
0.5412139892578125, 0.21298032999038696, -0.2938748002052307, -2.822341512001066e+38
0.5633013248443604, 0.2267945259809494, -0.30282485485076904, -2.8889075690238665e+38
0.5344240665435791, 0.2552819848060608, -0.2953222393989563, -2.034922188912706e+38
0.551193356513977, 0.2674190104007721, -0.29808509349823, -2.0615582661487975e+38
0.5254215598106384, 0.2628295421600342, -0.2868770956993103, -2.008129328650378e+38
0.53644859790802, 0.28731295466423035, -0.2868981957435608, -2.021525454545398e+38
0.5072354078292847, 0.27566418051719666, -0.26967811584472656, -2.0481102172851923e+38
0.5216694474220276, 0.28811097145080566, -0.27142125368118286, -2.0081810487948674e+38
0.6019625663757324, -0.3438881039619446, -0.35271602869033813, -2.0747986231380613e+38
0.6088472604751587, -0.34633129835128784, -0.3379245400428772, -2.1147275888042902e+38
0.5833155512809753, -0.3030225336551666, -0.32446616888046265, -2.0746945743767946e+38
0.5885412693023682, -0.28836023807525635, -0.3265027403831482, -2.114675665835705e+38
0.5778209567070007, -0.24100489914417267, -0.3055301308631897, -2.1015391547836117e+38
0.579980731010437, -0.25739219784736633, -0.29129719734191895, -2.1680009602210496e+38
0.5835633277893066, -0.22448763251304626, -0.28852134943008423, -2.1147789033005874e+38
0.5651115775108337, -0.19394832849502563, -0.26484566926956177, -2.1547604004076898e+38
0.5507020950317383, -0.15608333051204681, -0.2616194486618042, -2.1280713860825326e+38
0.5590808391571045, -0.17407849431037903, -0.2555130124092102, -2.1414161974812553e+38
0.5538344979286194, -0.14319203794002533, -0.26299697160720825, -2.1013823717573755e+38
0.5691142082214355, -0.13440650701522827, -0.259867787361145, -2.1547092887354886e+38
0.583167314529419, -0.12772908806800842, -0.29258400201797485, -2.0879868543346438e+38
0.5989949107170105, -0.11682271212339401, -0.2884370684623718, -2.128072805851205e+38
0.5805925130844116, -0.08098523318767548, -0.284865140914917, -2.0615069516525003e+38
0.5998795032501221, -0.10124080628156662, -0.28779423236846924, -2.114832448861941e+38
0.5803089141845703, -0.06609201431274414, -0.2833789587020874, -2.087987259982836e+38
0.5936145782470703, -0.05327623337507248, -0.2776697278022766, -2.1147281972765783e+38
0.5826224684715271, -0.0372258722782135, -0.28424668312072754, -2.0747992316103495e+38
0.5851356387138367, -0.022912031039595604, -0.28649115562438965, -2.0481106229333844e+38
0.586941123008728, -0.008373359218239784, -0.28814470767974854, -2.0481625459019697e+38
0.5977272987365723, 0.006249279715120792, -0.28021544218063354, -2.0748511545789348e+38
0.5883747935295105, 0.021072212606668472, -0.28963810205459595, -2.048213860398267e+38
0.5980949401855469, 0.021266918629407883, -0.2806514501571655, -2.0881957631535614e+38
0.585057258605957, 0.06498753279447556, -0.2873225808143616, -2.048214266046459e+38
0.5965157747268677, 0.051192864775657654, -0.2796875834465027, -2.07490307754752e+38
0.5793368816375732, 0.09320653975009918, -0.28284382820129395, -2.034921783264514e+38
0.5885524749755859, 0.09460582584142685, -0.2737876772880554, -2.1547088830872965e+38
0.5754966139793396, 0.10678733885288239, -0.27977854013442993, -2.048213860398267e+38
0.584504246711731, 0.10838431864976883, -0.27070385217666626, -2.141364477336766e+38
0.5648715496063232, 0.14680534601211548, -0.2726280689239502, -2.154499974268379e+38
0.5791466236114502, 0.13646213710308075, -0.2679750919342041, -2.1413123515440846e+38
0.5702961683273315, 0.1802128106355667, -0.28320395946502686, -2.1946883519534384e+38
0.6137605905532837, 0.18539297580718994, -0.30942267179489136, -2.101435511670537e+38
0.5942642092704773, 0.21144545078277588, -0.31374168395996094, -2.2881490869347772e+38
0.5997222065925598, 0.22974291443824768, -0.30198395252227783, -2.902250960653917e+38
0.5839921236038208, 0.2571006715297699, -0.3111676573753357, -2.635573174230896e+38
0.602191150188446, 0.24961638450622559, -0.30785518884658813, -2.8489777920612535e+38
0.5691823363304138, 0.2804599702358246, -0.300664484500885, -2.0882470776498586e+38
0.5872147083282471, 0.2745148539543152, -0.2977704405784607, -2.00797213997595e+38
0.5708963871002197, 0.2965885400772095, -0.28648507595062256, -2.141364882984958e+38
0.5594978332519531, 0.30353987216949463, -0.27709686756134033, -2.1679496457247524e+38
0.5423147082328796, 0.30736044049263, -0.2795869708061218, -2.1148841690064304e+38
0.5420585870742798, 0.32109197974205017, -0.2646435499191284, -2.061350777098552e+38
0.5993480682373047, -0.3702148497104645, -0.292438268661499, -1.8747382082341382e+38
0.6154898405075073, -0.34863045811653137, -0.32274067401885986, -2.114831840389653e+38
0.615240216255188, -0.36606064438819885, -0.3047637343406677, -1.8747382082341382e+38
0.6215164661407471, -0.33281880617141724, -0.3248363137245178, -2.0747986231380613e+38
0.6091830730438232, -0.29574644565582275, -0.28565287590026855, -1.9414077055459175e+38
0.586756706237793, -0.2598004937171936, -0.27876293659210205, -2.088143028888592e+38
0.6134092211723328, -0.25999143719673157, -0.28285086154937744, -1.901374488294326e+38
0.6041431427001953, -0.23708482086658478, -0.2906985282897949, -2.0615586717969896e+38
0.6238139867782593, -0.22968164086341858, -0.28700023889541626, -1.9680965170469786e+38
0.5653282403945923, -0.16040043532848358, -0.24199266731739044, -2.0614024972430415e+38
0.5731675624847412, -0.1784640997648239, -0.23443005979061127, -1.9680963142228825e+38
0.5689769983291626, -0.14737392961978912, -0.24366186559200287, -2.101279539940685e+38
0.5848191976547241, -0.13841615617275238, -0.23961247503757477, -1.9014785370555926e+38
0.5951132774353027, -0.12937401235103607, -0.2665836215019226, -2.1280206800585235e+38
0.6056090593338013, -0.11620364338159561, -0.2561725974082947, -1.888134536953254e+38
0.6040271520614624, -0.0854993388056755, -0.2710978388786316, -2.0080256855373035e+38
0.6125304698944092, -0.10274245589971542, -0.2613013982772827, -1.91477142548573e+38
0.6136714816093445, -0.05645541846752167, -0.27867716550827026, -2.0479552596758204e+38
0.6243120431900024, -0.07390818744897842, -0.2700459361076355, -1.941460236986791e+38
0.6147415041923523, -0.02515890635550022, -0.278456449508667, -2.034767028479238e+38
0.6245372295379639, -0.025744954124093056, -0.2681047320365906, -1.914771831133922e+38
0.6114205121994019, -0.009318826720118523, -0.27482032775878906, -2.0081301399467623e+38
0.6224292516708374, 0.00605848990380764, -0.26566338539123535, -1.9148241597506993e+38
0.6130086183547974, 0.021643400192260742, -0.2762959599494934, -1.9947857341962317e+38
0.6073716878890991, 0.03672788664698601, -0.2709527611732483, -1.9947855313721357e+38
0.6040979623794556, 0.06688704341650009, -0.2687597870826721, -1.9814920344697103e+38
0.6157031059265137, 0.05259965360164642, -0.2600882053375244, -1.9281162368844525e+38
0.5977375507354736, 0.0960000678896904, -0.2642263174057007, -1.9681472230709877e+38
0.6106029748916626, 0.0827862098813057, -0.2566990256309509, -1.9280121881231857e+38
0.6088655591011047, 0.13094308972358704, -0.27801811695098877, -1.9548555515854266e+38
0.629416823387146, 0.12006821483373642, -0.2766045928001404, -1.914771831133922e+38
0.6442848443984985, 0.18031597137451172, -0.31760138273239136, -1.9281669429084616e+38
0.6695998907089233, 0.1705639660358429, -0.31799083948135376, -1.9015835999373395e+38
0.6338461637496948, 0.21196311712265015, -0.31165242195129395, -1.9149249633264295e+38
0.6598780155181885, 0.20459476113319397, -0.3129621148109436, -1.9415119571312802e+38
0.6277226805686951, 0.24585342407226562, -0.3109006881713867, -2.8755619463287598e+38
0.6472363471984863, 0.23628443479537964, -0.3057928681373596, -2.2082398411060223e+38
0.6321451663970947, 0.2652186155319214, -0.29678481817245483, -2.7422750774978826e+38
0.6203294992446899, 0.27582117915153503, -0.2881700396537781, -2.6355224682068868e+38
0.5956713557243347, 0.29722708463668823, -0.2902633547782898, -1.9147182855725683e+38
0.615105390548706, 0.2911219000816345, -0.2862638235092163, -1.8080145568887172e+38
0.5714664459228516, 0.3119959235191345, -0.271332323551178, -1.901374893942518e+38
0.6034836769104004, 0.3204406499862671, -0.28167593479156494, -1.954752111296448e+38
0.5650178790092468, 0.3437481224536896, -0.2724757194519043, -1.9013740826461338e+38
0.5906165838241577, 0.34802863001823425, -0.2762833833694458, -1.928063299795387e+38
0.6137354373931885, -0.382478266954422, -0.2859598994255066, -1.888239599835001e+38
0.6187090277671814, -0.38371819257736206, -0.26933741569519043, -1.8749461029325756e+38
0.6306455731391907, -0.37855228781700134, -0.2983826994895935, -1.90153187979285e+38
0.6539474725723267, -0.37538662552833557, -0.29372382164001465, -1.9015831942891474e+38
0.6544722318649292, -0.3566446006298065, -0.31304460763931274, -1.9014274253833914e+38
0.667921245098114, -0.341941237449646, -0.2983412742614746, -1.914771831133922e+38
0.6220766305923462, -0.28352150321006775, -0.2739529609680176, -1.914771831133922e+38
0.6434415578842163, -0.27753373980522156, -0.2693224549293518, -1.9280121881231857e+38
0.6262437105178833, -0.2475360482931137, -0.27148646116256714, -1.9280119852990897e+38
0.672548234462738, -0.2573937177658081, -0.28885161876678467, -1.9547007968001508e+38
0.6090019941329956, -0.19900602102279663, -0.25005030632019043, -1.9414081111941095e+38
0.591633677482605, -0.16961753368377686, -0.21399347484111786, -1.941355985401428e+38
0.5836815237998962, -0.15141791105270386, -0.22260402143001556, -1.8880304881919874e+38
0.6110926866531372, -0.14755447208881378, -0.2269238382577896, -1.901375096766614e+38
0.5929257869720459, -0.10987180471420288, -0.22610093653202057, -1.8747386138823303e+38
0.6143044233322144, -0.13273490965366364, -0.22801215946674347, -1.888083019632861e+38
0.6221914291381836, -0.08845508098602295, -0.24964167177677155, -1.9014278310315834e+38
0.6488549709320068, -0.11223634332418442, -0.25409841537475586, -1.9014278310315834e+38
0.6512447595596313, -0.06218397617340088, -0.2733510136604309, -1.9014270197351993e+38
0.6915844678878784, -0.08804389834403992, -0.2872192859649658, -1.91477142548573e+38
0.6554995775222778, -0.045708589255809784, -0.27636629343032837, -1.8880826139846688e+38
0.6980728507041931, -0.0323992520570755, -0.29030513763427734, -1.914771831133922e+38
0.6378486156463623, 0.005928811151534319, -0.2598825693130493, -1.8881353482496383e+38
0.6536598205566406, 0.005795640405267477, -0.2533191442489624, -1.9014797540001688e+38
0.6320685148239136, 0.03806294500827789, -0.25509220361709595, -1.914771831133922e+38
0.6540831923484802, 0.022629279643297195, -0.25371217727661133, -1.8748947884362784e+38
0.630658745765686, 0.05398070812225342, -0.25426483154296875, -1.8747386138823303e+38
0.6494406461715698, 0.0726110115647316, -0.25110679864883423, -1.9413565938737163e+38
0.6322775483131409, 0.10308308154344559, -0.2580258846282959, -1.901531474144658e+38
0.6784383058547974, 0.09574660658836365, -0.2758474349975586, -1.9414085168423016e+38
0.6958104372024536, 0.15927539765834808, -0.3171807527542114, -1.9415125656035684e+38
0.7140032649040222, 0.1436305195093155, -0.30769723653793335, -1.9015835999373395e+38
0.6954652070999146, 0.1996028870344162, -0.32074403762817383, -1.9814938598865746e+38
0.7153984308242798, 0.18538154661655426, -0.31219571828842163, -1.914771831133922e+38
0.685565710067749, 0.21531762182712555, -0.31406170129776, -1.968149048487852e+38
0.6844227313995361, 0.23278695344924927, -0.2924307584762573, -1.9280622856749067e+38
0.6522741317749023, 0.25641584396362305, -0.2913821339607239, -2.8221841205025416e+38
0.6728026866912842, 0.24652186036109924, -0.28495079278945923, -2.2082396382819262e+38
0.6351867914199829, 0.28412896394729614, -0.2814464569091797, -2.6622108740597558e+38
0.6638522148132324, 0.28182312846183777, -0.2827235460281372, -2.6754498112803473e+38
0.6392711400985718, 0.3289027214050293, -0.29225218296051025, -1.928062894147195e+38
0.6611341238021851, 0.3223593235015869, -0.2867318391799927, -1.8479964596440116e+38
0.6249592304229736, 0.3370693325996399, -0.2821911573410034, -1.954752111296448e+38
0.6244373321533203, 0.354096919298172, -0.2643629312515259, -1.914772033958018e+38
0.633956789970398, 0.3861490488052368, -0.27722978591918945, -1.8748947884362784e+38
0.6751362085342407, -0.4181196987628937, -0.2939324975013733, -1.861600885885661e+38
