# .PCD v0.7 - Point Cloud Data file format
VERSION 0.7
FIELDS x y z rgb
SIZE 4 4 4 4
TYPE F F F F
COUNT 1 1 1 1
WIDTH 659
HEIGHT 1
VIEWPOINT 0 0 0 1 0 0 0
POINTS 659
DATA ascii
0.36339 -0.01429 -0.30699 -294212658358288815442375733493696036864.00000
0.35835 0.00088 -0.30578 -287556174350466373725940485094138445824.00000
0.36338 0.00814 -0.30537 -283563257501433883976259685522465619968.00000
0.35857 0.02281 -0.30703 -283552812060488003365991352688053321728.00000
0.36346 0.01559 -0.30579 -290224994653343671475334736260106289152.00000
0.36021 0.02974 -0.29282 -288890574360700220774802398703496724480.00000
0.35990 0.03690 -0.29245 -288885361781432082295503444259916218368.00000
0.35522 0.05084 -0.29624 -279554642067368167833670750778297417728.00000
0.36043 0.04442 -0.29601 -287561285517686493946887319801462521856.00000
0.35916 0.05862 -0.29392 -290225014935753275127005160207357575168.00000
0.35834 0.06559 -0.29250 -284897657511667731025121599131823898624.00000
0.35190 0.07807 -0.29026 -279528660300665890043857674349400031232.00000
0.35741 0.07246 -0.29083 -286221652645774904767056027801272451072.00000
0.35520 0.08584 -0.28678 -290198931757002979078839964042203758592.00000
0.35394 0.09232 -0.28442 -290188526880876305771912479102294032384.00000
0.36681 -0.08332 -0.29875 -288880088354935132861193217974581854208.00000
0.36269 -0.07411 -0.29968 -291522947173519756472444816658903597056.00000
0.36908 -0.06864 -0.30124 -294191828323625865176850339666625298432.00000
0.36460 -0.05952 -0.30153 -296855496894463835401956908230766493696.00000
0.37084 -0.05357 -0.30277 -295541866071664127663609116606725095424.00000
0.36595 -0.03680 -0.30023 -295541947201302542270290812395730239488.00000
0.37093 -0.04556 -0.30084 -294217850655147350270004263990025256960.00000
0.36801 -0.03006 -0.30694 -290204144336271117558138918485784264704.00000
0.37391 -0.02317 -0.30736 -295547078650932266142908071050305601536.00000
0.37000 -0.00739 -0.31166 -291564586960436053351825180365793787904.00000
0.37585 -0.01581 -0.31372 -295562655541507870625793662539293261824.00000
0.37038 0.00031 -0.31267 -291564607242845657003495604313045073920.00000
0.37583 0.00802 -0.31206 -294228336660912438183613444718940127232.00000
0.36837 0.02327 -0.30475 -292888642941772038048770880876996198400.00000
0.37352 0.01579 -0.30332 -296891964666931201105379165388578750464.00000
0.36988 0.03045 -0.29041 -291554182084309380044897695425884061696.00000
0.36954 0.03786 -0.29000 -288890493231061806168120702914491580416.00000
0.36462 0.05228 -0.29385 -295557503809468543101505979937466613760.00000
0.37013 0.04565 -0.29347 -290230105820563791696281570967430365184.00000
0.36388 0.05946 -0.29263 -292904240114757246183326896313235144704.00000
0.36302 0.06655 -0.29116 -290230146385382998999622418861932937216.00000
0.36191 0.08124 -0.29163 -286211207204829024156787694966860152832.00000
0.36663 0.08245 -0.29005 -290209316350720048734097025034862198784.00000
0.36532 0.08934 -0.28774 -294202233199752538483777824606535024640.00000
0.36389 0.09607 -0.28521 -294207425496611073311406355102864244736.00000
0.36235 0.10264 -0.28244 -294207405214201469659735931155612958720.00000
0.37082 -0.09274 -0.29727 -291548969505041241565598740982303555584.00000
0.37780 -0.08762 -0.29902 -295567908685595216408433464877376339968.00000
0.37349 -0.07801 -0.30041 -290209316350720048734097025034862198784.00000
0.37848 -0.07943 -0.29817 -292883410080094295917801502486164406272.00000
0.37587 -0.05464 -0.30096 -292878197500826157438502548042583900160.00000
0.38076 -0.06403 -0.30056 -295536673774805592835980586110395875328.00000
0.37717 -0.03906 -0.30163 -295541947201302542270290812395730239488.00000
0.38240 -0.03992 -0.29985 -300879709501514759679101858411173642240.00000
0.37952 -0.03202 -0.30855 -295541906636483334966949964501227667456.00000
0.38043 -0.02420 -0.31051 -296881519225985320495110832554166452224.00000
0.38253 -0.01662 -0.31703 -295562655541507870625793662539293261824.00000
0.38953 -0.01746 -0.32031 -291559333816348707569185378027710709760.00000
0.38358 -0.00031 -0.31948 -291564607242845657003495604313045073920.00000
0.38947 0.00790 -0.31861 -287556133785647166422599637199635873792.00000
0.37999 0.01597 -0.30642 -270208365745138252540622889754942242816.00000
0.38541 0.01608 -0.30488 -266210256599247227963313559686940196864.00000
0.37724 0.03134 -0.29750 -291564586960436053351825180365793787904.00000
0.38212 0.03958 -0.29550 -295578212149673871457008830081029636096.00000
0.37634 0.04673 -0.29629 -292904118420299624273304352629727428608.00000
0.37565 0.05433 -0.29525 -290235216987783911917228405674754441216.00000
0.37482 0.06184 -0.29393 -296897096116560924977996424043154112512.00000
0.37996 0.06276 -0.29228 -298215898953809563892302322216273444864.00000
0.37272 0.07653 -0.29047 -295552230382971593667195753652132249600.00000
0.37760 0.08587 -0.29072 -294212597511060004487364461651942178816.00000
0.37008 0.09067 -0.28597 -292878156936006950135161700148081328128.00000
0.37450 0.10005 -0.28551 -295562635259098266974123238592041975808.00000
0.36626 0.11184 -0.28153 -288885321216612874992162596365413646336.00000
0.37091 0.11346 -0.27936 -291559435228396725827537497763967139840.00000
0.38907 -0.11081 -0.30460 -294228174401635608970250053140929839104.00000
0.38643 -0.10212 -0.31238 -292888622659362434397100456929744912384.00000
0.39173 -0.10386 -0.30946 -286221551233726886508703908065016020992.00000
0.38702 -0.07486 -0.30445 -295562614976688663322452814644790689792.00000
0.39500 -0.08766 -0.31316 -295562655541507870625793662539293261824.00000
0.38770 -0.05776 -0.30163 -298226303829936237199229807156183171072.00000
0.39625 -0.06081 -0.30905 -298231475844385168375187913705261105152.00000
0.38917 -0.04147 -0.30255 -300890073812822225682688495456580796416.00000
0.39633 -0.05192 -0.30723 -298231455561975564723517489758009819136.00000
0.40076 -0.03611 -0.31749 -298252407291096136899065427268588273664.00000
0.40189 -0.02755 -0.31967 -291580204415830865138051619749284020224.00000
0.39755 -0.00970 -0.32499 -294233468110542162056230703373515489280.00000
0.40453 -0.01925 -0.32668 -288911323265724756433646096741562318848.00000
0.39806 -0.00097 -0.32612 -300905691268217037468914934840071028736.00000
0.40444 0.00776 -0.32496 -302255729016255299955673711780170825728.00000
0.39536 0.01643 -0.31731 -298247275841466413026448168614012911616.00000
0.40121 0.02529 -0.31552 -304903699002060043787872145171816644608.00000
0.39066 0.03268 -0.30312 -299586827583739587599597764825197838336.00000
0.39783 0.03339 -0.30582 -308896555003863722582541672901735612416.00000
0.38961 0.04903 -0.30175 -300926318478783951217736089194628907008.00000
0.39586 0.05855 -0.30316 -299581554157242638165287538539863474176.00000
0.38673 0.07289 -0.29738 -287545586932653267553979184628967145472.00000
0.39482 0.06675 -0.30162 -295567908685595216408433464877376339968.00000
0.38678 0.08149 -0.29976 -288885260369384064037151324523659788288.00000
0.39659 0.09479 -0.31384 -291564566678026449700154756418542501888.00000
0.38370 0.09659 -0.29477 -287561265235276890295216895854211235840.00000
0.39282 0.11051 -0.30780 -294233447828132558404560279426264203264.00000
0.37882 0.10966 -0.28447 -292898986970669900400687093975152066560.00000
0.38172 0.11813 -0.27865 -303569298991826196739010231562458365952.00000
0.37951 0.12473 -0.27503 -292888622659362434397100456929744912384.00000
0.39474 -0.12322 -0.30675 -303569217862187782132328535773453221888.00000
0.40323 -0.11822 -0.30856 -298236627576424495899475596307087753216.00000
0.40157 -0.09990 -0.31649 -292893733826582554618047291637068988416.00000
0.40729 -0.10165 -0.31326 -292893713544172950966376867689817702400.00000
0.40474 -0.08279 -0.31984 -295562594694279059670782390697539403776.00000
0.41002 -0.09384 -0.31792 -292893713544172950966376867689817702400.00000
0.40698 -0.07463 -0.32379 -295562574411869456019111966750288117760.00000
0.41303 -0.07607 -0.32090 -291564424701159224138461788787783499776.00000
0.40534 -0.04549 -0.31265 -298231475844385168375187913705261105152.00000
0.41138 -0.04648 -0.31014 -298226263265117029895888959261680599040.00000
0.40675 -0.03694 -0.31521 -300900417841720088034604708554736664576.00000
0.41288 -0.03779 -0.31277 -302229645837505003907508515615017009152.00000
0.40631 -0.00988 -0.31095 -302240070996041280866106424502178021376.00000
0.41164 -0.01913 -0.30715 -298231536691613979330199185547014963200.00000
0.40687 -0.00108 -0.31211 -302234858416773142386807470058597515264.00000
0.40999 0.00780 -0.30133 -311570750145285988024598270089294249984.00000
0.40735 0.01667 -0.31337 -307572640999394963447288940021292204032.00000
0.41183 0.01671 -0.30641 -307572640999394963447288940021292204032.00000
0.40372 0.03383 -0.30381 -307562114428810668230338911397874761728.00000
0.40976 0.03427 -0.30164 -308886150127737049275614187961825886208.00000
0.40412 0.05151 -0.30691 -304903699002060043787872145171816644608.00000
0.41016 0.05228 -0.30464 -308891403271824395058253990299908964352.00000
0.40369 0.06928 -0.30868 -299571189845935172161700901494456320000.00000
0.40565 0.07951 -0.31637 -295567868120776009105092616982873767936.00000
0.41553 0.09267 -0.32669 -294238599560171885928847962028090851328.00000
0.41549 0.10271 -0.32915 -294238579277762282277177538080839565312.00000
0.40724 0.10966 -0.32881 -291564546395616846048484332471291215872.00000
0.41289 0.12132 -0.32772 -294238579277762282277177538080839565312.00000
0.40268 0.12597 -0.32161 -288890452666242598864779855019989008384.00000
0.40412 0.13397 -0.30930 -276880487490765109694955001485241352192.00000
0.39810 0.13788 -0.29537 -290219741509256325692694933922023211008.00000
0.40933 -0.13138 -0.31027 -300879547242237930465738466833163354112.00000
0.41859 -0.12618 -0.31195 -291548847810583619655576197298795839488.00000
0.41510 -0.10513 -0.31528 -291559272969119896614174106185956851712.00000
0.41993 -0.11660 -0.31188 -291559252686710292962503682238705565696.00000
0.41599 -0.09553 -0.31460 -284887070093854624853160298666652598272.00000
0.42495 -0.08895 -0.31566 -287556012091189544512577093516128157696.00000
0.42125 -0.07882 -0.32329 -288895543551053115434056265780061798400.00000
0.42764 -0.08034 -0.31995 -291559293251529500265844530133208137728.00000
0.43018 -0.06120 -0.32204 -300900336712081673427923012765731520512.00000
0.43002 -0.05103 -0.31989 -307562154993629875533679759292377333760.00000
0.41677 -0.02859 -0.30275 -307551750117503202226752274352467607552.00000
0.42358 -0.03887 -0.30245 -308881038960516929054667353254501810176.00000
0.41431 -0.01890 -0.29543 -304882868967397093522346751344745906176.00000
0.42053 -0.01944 -0.29284 -307546578103054271050794167803389673472.00000
0.41407 -0.00106 -0.29370 -311560284421930503762659513307630665728.00000
0.42071 0.00774 -0.29204 -311555092125071968935030982811301445632.00000
0.41453 0.02555 -0.29509 -306217309542450147874549512848606756864.00000
0.42079 0.02584 -0.29260 -307546557820644667399123743856138387456.00000
0.41422 0.03441 -0.29483 -310210185826663430320889464525777010688.00000
0.42046 0.03487 -0.29232 -311544626401716484673092226029637861376.00000
0.41461 0.05251 -0.29766 -311560284421930503762659513307630665728.00000
0.42158 0.06288 -0.29816 -307562114428810668230338911397874761728.00000
0.41408 0.07066 -0.29912 -295573019852815336629380299584700416000.00000
0.42052 0.08140 -0.29881 -304893212996294955874262964442901774336.00000
0.42190 0.09413 -0.32380 -294238579277762282277177538080839565312.00000
0.42624 0.10463 -0.31765 -294233326133674936494537735742756487168.00000
0.42156 0.11456 -0.32817 -296907460427868390981583061088561266688.00000
0.42330 0.12345 -0.31572 -294238579277762282277177538080839565312.00000
0.41353 0.13954 -0.31619 -291564566678026449700154756418542501888.00000
0.41950 0.14161 -0.31251 -295567888403185612756763040930125053952.00000
0.40561 0.15263 -0.30184 -294233488392951765707901127320766775296.00000
0.41443 0.14744 -0.30281 -298236789835701325112838987885098041344.00000
0.40778 0.16177 -0.29299 -295567908685595216408433464877376339968.00000
0.42706 -0.16157 -0.30694 -299565896137028619075720251261870669824.00000
0.42915 -0.15199 -0.30776 -304893253561114163177603812337404346368.00000
0.42514 -0.14014 -0.31314 -299545106667184876113535705329302503424.00000
0.43107 -0.14229 -0.30840 -303548428392344039170143989840885055488.00000
0.42593 -0.11855 -0.30780 -292893733826582554618047291637068988416.00000
0.43200 -0.12052 -0.30349 -295562655541507870625793662539293261824.00000
0.43355 -0.09211 -0.31747 -298231536691613979330199185547014963200.00000
0.43921 -0.10414 -0.31419 -298231536691613979330199185547014963200.00000
0.43911 -0.07408 -0.32603 -299565896137028619075720251261870669824.00000
0.44563 -0.08628 -0.32371 -296897055551741717674655576148651540480.00000
0.44856 -0.06594 -0.32612 -300900336712081673427923012765731520512.00000
0.44837 -0.05510 -0.32398 -299565896137028619075720251261870669824.00000
0.42953 -0.03002 -0.29716 -307551750117503202226752274352467607552.00000
0.43875 -0.04136 -0.30104 -310220590702790103627816949465686736896.00000
0.42785 -0.01086 -0.29168 -308880998395697721751326505359999238144.00000
0.43440 -0.01125 -0.28872 -306217268977630940571208664954104184832.00000
0.42711 0.00770 -0.28936 -307546557820644667399123743856138387456.00000
0.43515 -0.00185 -0.28998 -306217268977630940571208664954104184832.00000
0.42720 0.02614 -0.28992 -314213548116641800680838596931862134784.00000
0.43581 0.01714 -0.29133 -307546557820644667399123743856138387456.00000
0.42811 0.04493 -0.29334 -311555031277843157980019710969547587584.00000
0.43533 0.03615 -0.29108 -307556901849542529751039956954294255616.00000
0.42991 0.06456 -0.29985 -303558772421241901522060202939040923648.00000
0.43777 0.05610 -0.29825 -304898425575563094353561918886482280448.00000
0.42683 0.08269 -0.29578 -303558772421241901522060202939040923648.00000
0.43502 0.07488 -0.29481 -304893212996294955874262964442901774336.00000
0.43324 0.09401 -0.29444 -298236647858834099551146020254339039232.00000
0.43298 0.10404 -0.29603 -295572979287996129326039451690197843968.00000
0.43024 0.11516 -0.31079 -295572979287996129326039451690197843968.00000
0.43601 0.12728 -0.30821 -291569698127656173572772015073117863936.00000
0.42665 0.13375 -0.30795 -292904138702709227924974776576978714624.00000
0.43171 0.14583 -0.30448 -294238538712943074973836690186336993280.00000
0.41829 0.14764 -0.29399 -295573040135224940281050723531951702016.00000
0.41490 0.15492 -0.28916 -295567868120776009105092616982873767936.00000
0.40968 0.15602 -0.26241 -298241901002921445333785822592422117376.00000
0.43756 -0.15691 -0.30847 -291533169507959996914338486073551749120.00000
0.44117 -0.16900 -0.30180 -294228133836816401666909205246427267072.00000
0.43961 -0.14696 -0.30921 -288869480654712423037561493562159267840.00000
0.45047 -0.14144 -0.31040 -288890371536604184258098159230983864320.00000
0.44980 -0.12041 -0.32165 -292899027535489107704027941869654638592.00000
0.45654 -0.12245 -0.31672 -298226384959574651805911502945188315136.00000
0.45368 -0.11153 -0.32720 -295562655541507870625793662539293261824.00000
0.46453 -0.10411 -0.32771 -298221152097896909674942124554356523008.00000
0.46107 -0.08111 -0.33569 -302234797569544331431796198216843657216.00000
0.46815 -0.09433 -0.33270 -303564086412558058259711277118877859840.00000
0.46110 -0.06967 -0.33374 -303569217862187782132328535773453221888.00000
0.47127 -0.06057 -0.33314 -299565916419438222727390675209121955840.00000
0.45768 -0.04613 -0.32329 -308881018678107325402996929307250524160.00000
0.46984 -0.03730 -0.32762 -298210747221770236368014639614446796800.00000
0.44872 -0.02281 -0.30226 -303543236095485504342515459344555835392.00000
0.45704 -0.01326 -0.30041 -300884820668734879900048693118497718272.00000
0.44450 0.00755 -0.29216 -306217309542450147874549512848606756864.00000
0.45321 -0.00263 -0.29236 -298215919236219167543972746163524730880.00000
0.44675 0.02742 -0.29725 -300884759821506068945037421276743860224.00000
0.45396 0.01761 -0.29374 -303553620689202573997772520337214275584.00000
0.45478 0.04926 -0.31548 -300900336712081673427923012765731520512.00000
0.46301 0.03941 -0.31265 -299555470978492342117122342374709657600.00000
0.45973 0.07230 -0.32832 -298226202417888218940877687419926740992.00000
0.47162 0.06344 -0.33176 -295567766708727990846740497246617337856.00000
0.44827 0.07876 -0.30546 -300889891271135792817654679931319222272.00000
0.46587 0.09563 -0.32481 -295536612927576781880969314268642017280.00000
0.44610 0.10967 -0.30674 -291569657562836966269431167178615291904.00000
0.46069 0.10449 -0.31628 -300874395510198602941450784231336706048.00000
0.44968 0.13449 -0.31987 -290235216987783911917228405674754441216.00000
0.45998 0.12714 -0.31962 -292872842944690793397510625968244391936.00000
0.44257 0.15201 -0.31047 -290235216987783911917228405674754441216.00000
0.45417 0.15860 -0.31655 -291554100954670965438215999636878917632.00000
0.43422 0.15593 -0.29515 -292898926123441089445675822133398208512.00000
0.44317 0.17268 -0.30017 -302203623505983518814354591291617050624.00000
0.41487 0.15811 -0.25810 -300889911553545396469325103878570508288.00000
0.41973 0.17065 -0.25639 -299534661226238995503267372494890205184.00000
0.45963 -0.19877 -0.32677 -294233305851265332842867311795505201152.00000
0.46938 -0.20525 -0.32678 -298226242982707426244218535314429313024.00000
0.45241 -0.16429 -0.30303 -295567807273547198150081345141119909888.00000
0.45889 -0.17991 -0.30145 -296891822690063975543686197757819748352.00000
0.45476 -0.15405 -0.30407 -292904138702709227924974776576978714624.00000
0.46640 -0.14842 -0.30492 -302213987817290984817941228337024204800.00000
0.46470 -0.13780 -0.31730 -296902227566190648850613682697729474560.00000
0.47156 -0.14001 -0.31152 -294212496099011986229012341915685748736.00000
0.47180 -0.10600 -0.32270 -300884800386325276248378269171246432256.00000
0.48238 -0.10981 -0.32338 -302213987817290984817941228337024204800.00000
0.47564 -0.09610 -0.32778 -300884780103915672596707845223995146240.00000
0.48698 -0.08746 -0.32736 -302213987817290984817941228337024204800.00000
0.48215 -0.06296 -0.33456 -300884759821506068945037421276743860224.00000
0.49042 -0.07663 -0.33175 -306217268977630940571208664954104184832.00000
0.48155 -0.05088 -0.33197 -300879526959828326814068042885912068096.00000
0.49188 -0.04057 -0.33016 -306217329824859751526219936795858042880.00000
0.47647 -0.02654 -0.32019 -302219281526197537903921878569609854976.00000
0.48583 -0.01590 -0.31766 -304882909532216300825687599239248478208.00000
0.46339 0.00739 -0.29413 -292888500964904812487077913246237196288.00000
0.48163 0.00719 -0.30952 -300895124132813534948624058322151014400.00000
0.47113 0.02909 -0.30915 -302224352128598450821527865382431358976.00000
0.48475 0.01858 -0.31519 -302213947252471777514600380442521632768.00000
0.48086 0.05315 -0.32897 -296897014986922510371314728254148968448.00000
0.49000 0.04232 -0.32548 -300889911553545396469325103878570508288.00000
0.48250 0.06525 -0.33316 -294228133836816401666909205246427267072.00000
0.48079 0.07654 -0.33119 -286211105792781005898435575230603722752.00000
0.48666 0.08904 -0.32403 -295547038086113058839567223155803029504.00000
0.48410 0.10004 -0.32109 -294212638075879211790705309546444750848.00000
0.47050 0.11924 -0.31892 -292878116371187742831820852253578756096.00000
0.47796 0.12112 -0.31395 -283542265207494104497370900117384593408.00000
0.47733 0.13294 -0.31523 -288885179239745649430469628734654644224.00000
0.47639 0.14472 -0.31616 -291543675796134688479618090749717905408.00000
0.46797 0.15412 -0.32225 -296876225517078767409130182321580802048.00000
0.47513 0.15642 -0.31675 -291543716360953895782958938644220477440.00000
0.45921 0.17189 -0.31135 -296860709473731973881255862674346999808.00000
0.46878 0.17687 -0.31124 -279523427438988147912888295958568239104.00000
0.44476 0.19510 -0.29314 -291528017775920669390050803471725101056.00000
0.45332 0.20045 -0.29242 -291538442934456946348648712358886113280.00000
0.48019 -0.22792 -0.33263 -302213926970062173862929956495270346752.00000
0.49419 -0.22351 -0.33345 -303548367545115228215132717999131197440.00000
0.48645 -0.20458 -0.33513 -300889911553545396469325103878570508288.00000
0.49223 -0.19141 -0.32133 -298210625527312614457992095930939080704.00000
0.47302 -0.15066 -0.29873 -307530818670792233702874760789140439040.00000
0.48302 -0.15564 -0.29803 -302208714390794035383631002051689840640.00000
0.48178 -0.14478 -0.31144 -306191185798880644523043468788950368256.00000
0.49444 -0.13786 -0.31153 -308854854369718614748150037353091563520.00000
0.49216 -0.12600 -0.32417 -303538003233807762211546080953724043264.00000
0.49979 -0.12814 -0.31784 -306201651522236128784982225570613952512.00000
0.49430 -0.10147 -0.32300 -300874294098150584683098664495080275968.00000
0.50219 -0.10334 -0.31704 -302203542376345104207672895502611906560.00000
0.49851 -0.07815 -0.32638 -300879486395009119510727194991409496064.00000
0.51018 -0.06817 -0.32476 -302203542376345104207672895502611906560.00000
0.50361 -0.04231 -0.33101 -308875785816429583272027550916418732032.00000
0.51219 -0.04327 -0.32555 -311529069793550483841877058487901487104.00000
0.50219 -0.02965 -0.32765 -303543236095485504342515459344555835392.00000
0.51242 -0.01811 -0.32438 -299545147232004083416876553223805075456.00000
0.49825 -0.00494 -0.31983 -304893233278704559525933388390153060352.00000
0.51362 -0.00568 -0.32591 -296891822690063975543686197757819748352.00000
0.49897 0.03099 -0.32123 -302224352128598450821527865382431358976.00000
0.51087 0.03171 -0.32162 -288911181288857530871953129110803316736.00000
0.50050 0.05545 -0.32517 -296897014986922510371314728254148968448.00000
0.51018 0.04406 -0.32103 -300905529008940208255551543262060740608.00000
0.50032 0.08006 -0.32716 -294228214966454816273590901035432411136.00000
0.51085 0.06928 -0.32390 -303548387827524831866803141946382483456.00000
0.49848 0.10444 -0.32722 -296891964666931201105379165388578750464.00000
0.50674 0.10612 -0.32159 -290235298117422326523910101463759585280.00000
0.50338 0.11747 -0.31795 -288906049839227806999335870456227954688.00000
0.49964 0.12845 -0.31389 -283557862380479312631926915553623539712.00000
0.48687 0.14902 -0.31613 -292904138702709227924974776576978714624.00000
0.49441 0.15127 -0.31008 -295536633209986385532639738215893303296.00000
0.48552 0.16105 -0.31663 -295557463244649335798165132042964041728.00000
0.49110 0.17544 -0.31038 -290198911474593375427169540094952472576.00000
0.47645 0.19341 -0.31031 -290193739460144444251211433545874538496.00000
0.49239 0.19021 -0.31598 -280857827449221994961750209567926517760.00000
0.47394 0.20464 -0.30953 -292862640892660156607287380500847525888.00000
0.49087 0.21739 -0.32093 -290193739460144444251211433545874538496.00000
0.50644 -0.24851 -0.33920 -302219038137282294083876791202594422784.00000
0.51305 -0.25110 -0.32957 -298220969556210476809908309029094948864.00000
0.50880 -0.21856 -0.33395 -295531380065899039749999935877810225152.00000
0.52404 -0.21300 -0.33408 -295526187769040504922371405381481005056.00000
0.49054 -0.17207 -0.29562 -296865800358542490450532273434419789824.00000
0.50408 -0.16611 -0.29553 -300869101801292049855470133998751055872.00000
0.49960 -0.15201 -0.30405 -299534640943829391851596948547638919168.00000
0.51314 -0.14490 -0.30361 -300874273815740981031428240547828989952.00000
0.51133 -0.13267 -0.31734 -298200220651185941151064610991029354496.00000
0.51918 -0.13487 -0.31017 -299534661226238995503267372494890205184.00000
0.51782 -0.10905 -0.32286 -304872423526451212912078418510333607936.00000
0.53103 -0.09948 -0.32129 -302203542376345104207672895502611906560.00000
0.51879 -0.08273 -0.32050 -296865780076132886798861849487168503808.00000
0.53124 -0.07226 -0.31823 -302203542376345104207672895502611906560.00000
0.52191 -0.05749 -0.32243 -306191246646109455478054740630704226304.00000
0.53362 -0.04610 -0.31932 -299534722073467806458278644336644063232.00000
0.52698 -0.03243 -0.32829 -302198431209124983986726060795287830528.00000
0.53605 -0.03321 -0.32203 -296871073785039439884842499719754153984.00000
0.52699 0.00675 -0.32707 -290235216987783911917228405674754441216.00000
0.53934 -0.00679 -0.32579 -303548408109934435518473565893633769472.00000
0.52725 0.01977 -0.32753 -288916393868125669351252083554383822848.00000
0.54044 0.02011 -0.32728 -296891802407654371892015773810568462336.00000
0.52251 0.04522 -0.32103 -302229564707866589300826819826011865088.00000
0.53400 0.05952 -0.31942 -302224352128598450821527865382431358976.00000
0.52096 0.08376 -0.32160 -302187965485769499724787304013624246272.00000
0.53213 0.07242 -0.31765 -299550278681633807289493811878380437504.00000
0.51825 0.09595 -0.31884 -292867691212651465873222943366417743872.00000
0.52733 0.11108 -0.31484 -291559333816348707569185378027710709760.00000
0.51111 0.13231 -0.31332 -290209194656262426824074481351354482688.00000
0.52350 0.12293 -0.31100 -283557902945298519935267763448126111744.00000
0.50672 0.14315 -0.30870 -294196898926026778094456326479446802432.00000
0.51462 0.14532 -0.30202 -294191787758806657873509491772122726400.00000
0.50385 0.16826 -0.30948 -290198850627364564472158268253198614528.00000
0.51306 0.18596 -0.30791 -284866260341601278239305328786833145856.00000
0.50703 0.19897 -0.32115 -283526668034508896362814884681145647104.00000
0.50839 0.21500 -0.32711 -288864470899540321074966778591091621888.00000
0.50964 0.23152 -0.33323 -294202233199752538483777824606535024640.00000
0.51693 0.23435 -0.32479 -287535222621345801550392547583559991296.00000
0.49906 0.25208 -0.32405 -287540435200613940029691502027140497408.00000
0.50191 0.26671 -0.31359 -280868232325348668268677694507836243968.00000
0.52894 -0.24659 -0.32953 -296881316401889283978406593081653592064.00000
0.53580 -0.24919 -0.31921 -298215756976942338330609354585514442752.00000
0.53285 -0.23356 -0.33116 -294207303802153451401383811419356528640.00000
0.53651 -0.22029 -0.33258 -292872863227100397049181049915495677952.00000
0.54756 -0.20947 -0.32417 -292878014959139724573468732517322326016.00000
0.54565 -0.19174 -0.31803 -295546875826836229626203831577792741376.00000
0.53113 -0.16878 -0.31408 -296881275837070076675065745187151020032.00000
0.55129 -0.16421 -0.31971 -296881275837070076675065745187151020032.00000
0.53310 -0.12635 -0.30890 -306212036115953198440239286563272392704.00000
0.54582 -0.13086 -0.30713 -303543114401027882432492915661048119296.00000
0.54404 -0.10319 -0.32027 -302203542376345104207672895502611906560.00000
0.55286 -0.10506 -0.31249 -310210185826663430320889464525777010688.00000
0.54440 -0.08913 -0.31899 -299534661226238995503267372494890205184.00000
0.55785 -0.07797 -0.31589 -299534661226238995503267372494890205184.00000
0.54372 -0.06105 -0.31517 -303548387827524831866803141946382483456.00000
0.55280 -0.06230 -0.30790 -292867711495061069524893367313669029888.00000
0.54725 -0.02065 -0.31755 -303543276660304711645856307239058407424.00000
0.55888 -0.03552 -0.31406 -295536633209986385532639738215893303296.00000
0.54958 0.00657 -0.32021 -303537982951398158559875657006472757248.00000
0.56260 -0.00769 -0.31794 -300884638127048447035014877593236144128.00000
0.54957 0.03403 -0.32054 -300879506677418723162397618938660782080.00000
0.56383 0.02066 -0.31944 -296876184952259560105789334427078230016.00000
0.54723 0.06121 -0.31855 -294217708678280124708311296359266254848.00000
0.55814 0.04838 -0.31274 -284892343520351574287470524951986962432.00000
0.54265 0.08763 -0.31431 -286226844942633439594684558297601671168.00000
0.55446 0.07571 -0.30956 -295552128970923575408843633915875819520.00000
0.53957 0.10041 -0.31139 -271553211196317980199753136198712819712.00000
0.54849 0.10200 -0.30416 -291559394663577518524196649869464567808.00000
0.53589 0.12665 -0.30968 -280883870063153083706574557838577762304.00000
0.54452 0.12861 -0.30223 -295547038086113058839567223155803029504.00000
0.52879 0.16523 -0.30641 -292862498915792931045594412870088523776.00000
0.54698 0.15886 -0.30989 -291528058340739876693391651366227673088.00000
0.52461 0.19147 -0.30605 -286200741481473539894848938185196568576.00000
0.53227 0.19405 -0.29777 -284871513485688624021945131124916224000.00000
0.53042 0.21110 -0.31792 -282202632335582515317539608117194522624.00000
0.53493 0.22701 -0.30809 -283552710648439985107639232951796891648.00000
0.52419 0.23716 -0.31596 -282207824632441050145168138613523742720.00000
0.52060 0.24982 -0.31457 -286205994625560885677488740523279646720.00000
0.51719 0.27948 -0.31821 -280868232325348668268677694507836243968.00000
0.53294 0.27487 -0.31722 -282202672900401722620880456011697094656.00000
0.55099 -0.29716 -0.32940 -294233224721626918236185616006500057088.00000
0.55741 -0.29953 -0.31707 -295557240138143695629790468623199895552.00000
0.55425 -0.26339 -0.32465 -299555410131263531162111070532955799552.00000
0.56260 -0.28603 -0.31932 -298220949273800873158237885081843662848.00000
0.55274 -0.24413 -0.31839 -299550156987176185379471268194872721408.00000
0.55982 -0.24672 -0.30730 -299555410131263531162111070532955799552.00000
0.56081 -0.21666 -0.32169 -302219038137282294083876791202594422784.00000
0.56435 -0.20251 -0.32295 -300884597562229239731674029698733572096.00000
0.56752 -0.18810 -0.32392 -294212394686963967970660222179429318656.00000
0.58466 -0.17965 -0.32182 -304887899004978799136611890263064838144.00000
0.57261 -0.15862 -0.32485 -302213845840423759256248260706265202688.00000
0.58345 -0.14590 -0.31524 -303537881539350140301523537270216327168.00000
0.56655 -0.10894 -0.31043 -307546456408596649140771624119881957376.00000
0.58072 -0.11296 -0.30783 -300874233250921773728087392653326417920.00000
0.57191 -0.08099 -0.31399 -302203542376345104207672895502611906560.00000
0.58130 -0.09776 -0.30683 -303543114401027882432492915661048119296.00000
0.56653 -0.06476 -0.30596 -300853484345897238069243694615260823552.00000
0.58458 -0.05319 -0.30697 -302213947252471777514600380442521632768.00000
0.58774 -0.03872 -0.30989 -302213987817290984817941228337024204800.00000
0.59022 -0.02394 -0.31221 -302214028382110192121282076231526776832.00000
0.57802 0.00633 -0.31726 -303532709524901209125565430721138393088.00000
0.59199 -0.00894 -0.31391 -302213947252471777514600380442521632768.00000
0.57797 0.03572 -0.31754 -298215878671399960240631898269022158848.00000
0.58792 0.03619 -0.30928 -296886650675615044367728091208741814272.00000
0.57693 0.05034 -0.31675 -292898986970669900400687093975152066560.00000
0.59000 0.06668 -0.31295 -294228174401635608970250053140929839104.00000
0.56826 0.07794 -0.30757 -298221010121029684113249156923597520896.00000
0.57940 0.09442 -0.30245 -302208653543565224428619730209935982592.00000
0.56183 0.10506 -0.30200 -294217708678280124708311296359266254848.00000
0.57563 0.10823 -0.29930 -300874233250921773728087392653326417920.00000
0.56601 0.15147 -0.31276 -288869582066760441295913613298415697920.00000
0.59612 0.16402 -0.32947 -291538422652047342696978288411634827264.00000
0.56318 0.18104 -0.31395 -287540435200613940029691502027140497408.00000
0.59342 0.19645 -0.33121 -284876786912185573456255357410250588160.00000
0.56350 0.21356 -0.32020 -282213098058937999579478364898858106880.00000
0.59127 0.21245 -0.33144 -278220181209905509829797565327185281024.00000
0.56052 0.22798 -0.31956 -284887191788312246763182842350160314368.00000
0.57398 0.23497 -0.31626 -282223502935064672886405849838767833088.00000
0.55470 0.27483 -0.32313 -280868232325348668268677694507836243968.00000
0.57208 0.26882 -0.32111 -280868191760529460965336846613333671936.00000
0.55035 0.28851 -0.32145 -283537113475454776973083217515557945344.00000
0.56310 0.29713 -0.31776 -283537113475454776973083217515557945344.00000
0.53024 0.30256 -0.30241 -282197480603543187793251925515367874560.00000
0.55300 0.32417 -0.31356 -276859738585740574036111303447175757824.00000
0.58798 -0.34992 -0.34020 -294212394686963967970660222179429318656.00000
0.59202 -0.32809 -0.31789 -296886447851519007851023851736228954112.00000
0.57609 -0.29557 -0.31546 -299550177269585789031141692142124007424.00000
0.59563 -0.29093 -0.31329 -299539792675868719375884631149465567232.00000
0.58637 -0.26696 -0.31969 -296881316401889283978406593081653592064.00000
0.60594 -0.26088 -0.31730 -295562574411869456019111966750288117760.00000
0.59941 -0.22168 -0.32440 -304893172431475748570922116548399202304.00000
0.60769 -0.22441 -0.31241 -300889891271135792817654679931319222272.00000
0.60605 -0.19004 -0.32607 -303553478712335348436079552706455273472.00000
0.62191 -0.19689 -0.32218 -299550197551995392682812116089375293440.00000
0.60865 -0.17386 -0.32637 -299544903843088839596831465856789643264.00000
0.63396 -0.16679 -0.33017 -300874273815740981031428240547828989952.00000
0.61224 -0.14094 -0.32578 -302203461246706689600991199713606762496.00000
0.62954 -0.12897 -0.32119 -298210625527312614457992095930939080704.00000
0.60165 -0.10340 -0.31005 -298205392665634872327022717540107288576.00000
0.60158 -0.08734 -0.30850 -299545066102365668810194857434799931392.00000
0.61227 -0.07419 -0.31924 -304882828402577886219005903450243334144.00000
0.61654 -0.05883 -0.32295 -303532770372130020080576702562892251136.00000
0.61688 -0.02634 -0.32188 -296870972372991421626490379983497723904.00000
0.65729 -0.04808 -0.34404 -306196459225377593957353695074284732416.00000
0.61306 -0.00994 -0.31722 -294222921257548263187610250802846760960.00000
0.63067 0.00586 -0.31483 -302224372411008054473198289329682644992.00000
0.60850 0.03754 -0.31232 -295562655541507870625793662539293261824.00000
0.62507 0.02222 -0.30899 -302219200396559123297240182780604710912.00000
0.61079 0.06963 -0.31608 -294228154119226005318579629193678553088.00000
0.62916 0.05544 -0.31406 -302224352128598450821527865382431358976.00000
0.60258 0.08384 -0.30782 -291559252686710292962503682238705565696.00000
0.62398 0.08767 -0.31024 -298221010121029684113249156923597520896.00000
0.62432 0.14005 -0.33656 -295541724094796902101916148975966093312.00000
0.64033 0.12642 -0.33016 -294212496099011986229012341915685748736.00000
0.62424 0.17531 -0.34061 -295541764659616109405256996870468665344.00000
0.64158 0.16285 -0.33509 -282202591770763308014198760222691950592.00000
0.63001 0.19648 -0.34972 -286216379219277955332745801515938086912.00000
0.63834 0.21723 -0.33882 -240840227653025176181893803835591229440.00000
0.61280 0.22333 -0.33541 -280889062360011618534203088334906982400.00000
0.61893 0.24295 -0.32335 -283537113475454776973083217515557945344.00000
0.59007 0.26204 -0.31846 -276875335758725782170667318883414704128.00000
0.60864 0.25441 -0.31509 -284871554050507831325285979019418796032.00000
0.58121 0.29171 -0.31539 -275546046915712055342752239981380501504.00000
0.60000 0.28552 -0.31240 -278214928065818164047157762989102202880.00000
0.58423 0.33410 -0.32794 -278214988913046975002169034830856060928.00000
0.61395 0.36073 -0.34153 -276885740634852455477594803823324430336.00000
0.59430 0.38310 -0.32808 -274222092346424088904158659206434521088.00000
0.66198 -0.42407 -0.38047 -294233143591988503629503920217494913024.00000
0.70096 -0.43425 -0.39065 -298226040158611389727514295841916452864.00000
0.62152 -0.33282 -0.32484 -295572776463900092809335212217684983808.00000
0.67479 -0.35668 -0.35326 -298226121288249804334195991630921596928.00000
0.62420 -0.29273 -0.31933 -295567746426318387195070073299366051840.00000
0.66460 -0.30145 -0.33451 -290229984126106169786259027283922649088.00000
0.63428 -0.26006 -0.32271 -299555410131263531162111070532955799552.00000
0.66466 -0.25815 -0.32746 -296886569545976629761046395419736670208.00000
0.64265 -0.22607 -0.32500 -299550197551995392682812116089375293440.00000
0.66358 -0.21623 -0.32038 -298215777259351941982279778532765728768.00000
0.64893 -0.19092 -0.32591 -298210564680083803502980824089185222656.00000
0.66903 -0.17942 -0.32062 -294217708678280124708311296359266254848.00000
0.64540 -0.15162 -0.31768 -299545066102365668810194857434799931392.00000
0.65651 -0.13593 -0.30460 -296886569545976629761046395419736670208.00000
0.63662 -0.11091 -0.28412 -299555410131263531162111070532955799552.00000
0.63684 -0.09388 -0.28297 -295552088406104368105502786021373247488.00000
0.65732 -0.06515 -0.32214 -299560683557760480596421296818290163712.00000
0.65595 -0.08162 -0.29979 -299534661226238995503267372494890205184.00000
0.69553 -0.03364 -0.35860 -310194568371268618534663025142286778368.00000
0.70411 -0.05366 -0.34305 -303537982951398158559875657006472757248.00000
0.68971 -0.01388 -0.35240 -303537982951398158559875657006472757248.00000
0.70318 0.00513 -0.34095 -299560683557760480596421296818290163712.00000
0.66147 0.02334 -0.32430 -304882828402577886219005903450243334144.00000
0.68686 0.04281 -0.32607 -294217708678280124708311296359266254848.00000
0.66382 0.07737 -0.32816 -299545025537546461506854009540297359360.00000
0.67767 0.06046 -0.31799 -296876184952259560105789334427078230016.00000
0.66753 0.09638 -0.33282 -299550197551995392682812116089375293440.00000
0.68946 0.11947 -0.33191 -298210666092131821761332943825441652736.00000
0.66507 0.13281 -0.33302 -294217769525508935663322568201020112896.00000
0.68491 0.15708 -0.33070 -288890472948652202516450278967240294400.00000
0.65867 0.18704 -0.33226 -282218249790977327103766047500684754944.00000
0.67730 0.17374 -0.32534 -286226844942633439594684558297601671168.00000
0.64806 0.22008 -0.32633 -283542326054722915452382171959138451456.00000
0.66752 0.20851 -0.32034 -280878657483884945227275603394997256192.00000
0.63484 0.25068 -0.31836 -283537113475454776973083217515557945344.00000
0.65476 0.24092 -0.31315 -279533791750295613916474933003975393280.00000
0.61945 0.27850 -0.30866 -288864470899540321074966778591091621888.00000
0.66354 0.28797 -0.32802 -282192268024275049313952971071787368448.00000
0.63239 0.33064 -0.33026 -283537093193045173321412793568306659328.00000
0.66307 0.33136 -0.33491 -284871513485688624021945131124916224000.00000
0.62971 0.37234 -0.33626 -279554520372910545923648207094789701632.00000
0.65206 0.36706 -0.33202 -282197318344266358579888533937357586432.00000
0.60057 0.38538 -0.31315 -275551300059799401125392042319463579648.00000
0.63044 0.39137 -0.31858 -280857726037173976703398089831670087680.00000
0.75536 -0.48558 -0.41751 -299555268154396305600418102902196797440.00000
0.74386 -0.44416 -0.40056 -299555268154396305600418102902196797440.00000
0.75751 -0.42322 -0.37962 -296891680713196749981993230127060746240.00000
0.68838 -0.34041 -0.33744 -298215797541761545633950202480017014784.00000
0.73908 -0.35320 -0.35430 -296881316401889283978406593081653592064.00000
0.69890 -0.30158 -0.33971 -295552149253333179060514057863127105536.00000
0.74833 -0.30901 -0.35496 -295536531797938367274287618479636873216.00000
0.69712 -0.25498 -0.33138 -303548367545115228215132717999131197440.00000
0.72077 -0.24405 -0.32488 -302198309514667362076703517111780114432.00000
0.68492 -0.20523 -0.31468 -298205392665634872327022717540107288576.00000
0.69732 -0.18859 -0.29998 -296870972372991421626490379983497723904.00000
0.67271 -0.15955 -0.29924 -295541724094796902101916148975966093312.00000
0.69221 -0.14616 -0.29184 -302208714390794035383631002051689840640.00000
0.65990 -0.11730 -0.28440 -302219078702101501387217639097096994816.00000
0.68482 -0.12415 -0.28410 -303543114401027882432492915661048119296.00000
0.71116 -0.07383 -0.32612 -299545066102365668810194857434799931392.00000
0.72551 -0.09612 -0.31531 -302219139549330312342228910938850852864.00000
0.74651 -0.05845 -0.33077 -300879506677418723162397618938660782080.00000
0.75059 -0.03773 -0.33350 -306206864101504267264281180014194458624.00000
0.74090 -0.01623 -0.35033 -303543175248256693387504187502801977344.00000
0.75345 -0.01665 -0.33546 -304867210947183074432779464066753101824.00000
0.73334 0.02547 -0.34359 -299555470978492342117122342374709657600.00000
0.75452 0.04741 -0.33651 -295552149253333179060514057863127105536.00000
0.72738 0.08666 -0.33993 -295541744377206505753586572923217379328.00000
0.74898 0.08948 -0.33321 -298210625527312614457992095930939080704.00000
0.71781 0.12568 -0.33369 -292883268103227070356108534855405404160.00000
0.73871 0.12987 -0.32686 -290235196705374308265557981727503155200.00000
0.71296 0.16543 -0.33247 -290224872958886049565312192576598573056.00000
0.72413 0.16768 -0.31772 -287555951243960733557565821674374299648.00000
0.69547 0.19960 -0.32074 -287556072938418355467588365357882015744.00000
0.70581 0.20217 -0.30611 -283537093193045173321412793568306659328.00000
0.67501 0.23005 -0.30690 -282197460321133584141581501568116588544.00000
0.69546 0.21799 -0.29950 -276864910600189505212069409996253691904.00000
0.67664 0.27254 -0.31396 -279523386874168940609547448064065667072.00000
0.69854 0.26202 -0.30713 -274180472841917395676448719446795616256.00000
0.67659 0.31608 -0.32050 -283516303723201430359228247635738492928.00000
0.70976 0.31433 -0.32294 -275514974264199260983662752792410324992.00000
0.69625 0.37948 -0.34711 -284861108609561950715017646185006497792.00000
0.72164 0.37195 -0.34076 -279518214859720009433589341514987732992.00000
0.66292 0.39696 -0.32356 -284835086278040465621863721861606539264.00000
0.68713 0.39163 -0.31785 -279518214859720009433589341514987732992.00000
0.65262 0.40599 -0.29468 -276844181977574573204896135905439383552.00000
0.63558 0.41130 -0.28312 -271516905683127443709694270618910851072.00000
0.79481 -0.48295 -0.38814 -287550515558186954909892203811029647360.00000
0.82762 -0.47657 -0.37965 -290219477837931478220979422607756492800.00000
0.78758 -0.41602 -0.37242 -296881316401889283978406593081653592064.00000
0.80164 -0.39423 -0.35063 -295546855544426625974533407630541455360.00000
0.76689 -0.34429 -0.34716 -300884617844638843383344453645984858112.00000
0.81090 -0.34427 -0.35039 -296881316401889283978406593081653592064.00000
0.76211 -0.28966 -0.33653 -303537982951398158559875657006472757248.00000
0.81463 -0.31902 -0.34991 -302208694108384431731960578104438554624.00000
0.78111 -0.25064 -0.34605 -307530798388382630051204336841889153024.00000
0.83607 -0.24927 -0.35743 -306196418660558386654012847179782160384.00000
0.72825 -0.17938 -0.29958 -307530859235611441006215608683643011072.00000
0.78306 -0.17674 -0.31422 -307530859235611441006215608683643011072.00000
0.73857 -0.11913 -0.30279 -306206823536685059960940332119691886592.00000
0.76049 -0.14603 -0.29612 -307530859235611441006215608683643011072.00000
0.79636 -0.08826 -0.34523 -300879506677418723162397618938660782080.00000
0.85396 -0.12398 -0.36109 -300869101801292049855470133998751055872.00000
0.80690 -0.04288 -0.35182 -304882828402577886219005903450243334144.00000
0.84578 -0.04623 -0.35250 -298210625527312614457992095930939080704.00000
0.82426 0.00394 -0.36457 -298210625527312614457992095930939080704.00000
0.84926 -0.02140 -0.35457 -302213947252471777514600380442521632768.00000
0.83756 0.02863 -0.37485 -302213926970062173862929956495270346752.00000
0.89406 0.05744 -0.38689 -298210605244903010806321671983687794688.00000
0.82085 0.07639 -0.36286 -300874273815740981031428240547828989952.00000
0.88625 0.11068 -0.38269 -302208714390794035383631002051689840640.00000
0.79938 0.12061 -0.34810 -298189775210240060540796278156617056256.00000
0.81733 0.14760 -0.33526 -287561082693590457430183080328949661696.00000
0.77386 0.16048 -0.33095 -290214427517940168955043859742186274816.00000
0.78769 0.18662 -0.31673 -283568287539015589590524824440784551936.00000
0.74512 0.19540 -0.31190 -282218249790977327103766047500684754944.00000
0.76578 0.22481 -0.30441 -282192288306684652965623395019038654464.00000
0.74093 0.26125 -0.31525 -274180452559507792024778295499544330240.00000
0.80013 0.26513 -0.33205 -280852655434773063785792103018848583680.00000
0.73399 0.30401 -0.31525 -268842730824114781919308097378603499520.00000
0.79583 0.31430 -0.33423 -268842730824114781919308097378603499520.00000
0.76062 0.37288 -0.34384 -278183814849486162384727427905629454336.00000
0.81344 0.40874 -0.35780 -279513063127680681909301658913161084928.00000
0.76914 0.40661 -0.35485 -280852675717182667437462526966099869696.00000
0.78714 0.44588 -0.34545 -274180533689146206631459991288549474304.00000
0.73014 0.42742 -0.33043 -274180553971555810283130415235800760320.00000
0.74418 0.46408 -0.32001 -251521228504042596950530361624325259264.00000
0.69600 0.47438 -0.31470 -254184897074880567175636930188466454528.00000
0.86172 -0.46881 -0.36970 -291538402369637739045307864464383541248.00000
0.87538 -0.44305 -0.34369 -282218168661338912497084351711679610880.00000
0.85492 -0.37006 -0.35313 -295531298936260625143318240088805081088.00000
0.87992 -0.41443 -0.34299 -288879885530839096344488978502068994048.00000
0.87660 -0.35374 -0.36505 -295536531797938367274287618479636873216.00000
0.88720 -0.35699 -0.34109 -291538341522408928090296592622629683200.00000
0.86267 -0.28729 -0.34940 -298200220651185941151064610991029354496.00000
0.89220 -0.27036 -0.33616 -298200220651185941151064610991029354496.00000
0.87991 -0.23866 -0.35635 -294207283519743847749713387472105242624.00000
0.90964 -0.24873 -0.34498 -296870972372991421626490379983497723904.00000
0.87573 -0.18167 -0.34956 -302219139549330312342228910938850852864.00000
0.93544 -0.16952 -0.35570 -298221030403439287764919580870848806912.00000
0.92430 -0.11030 -0.37805 -304882828402577886219005903450243334144.00000
0.94699 -0.14294 -0.36151 -299555450696082738465451918427458371584.00000
0.93187 -0.08287 -0.38217 -300879506677418723162397618938660782080.00000
0.97114 -0.05747 -0.37373 -298205514360092494237045261223615004672.00000
0.94386 0.00275 -0.38882 -298221010121029684113249156923597520896.00000
0.97541 -0.02768 -0.37593 -299534661226238995503267372494890205184.00000
0.96259 0.03238 -0.40137 -296896994704512906719644304306897682432.00000
0.99612 0.06434 -0.38892 -296870911525762610671479108141743865856.00000
0.93913 0.08939 -0.38663 -292883247820817466704438110908154118144.00000
0.96690 0.12206 -0.37223 -299539792675868719375884631149465567232.00000
0.89387 0.13827 -0.35820 -294217647831051313753300024517512396800.00000
0.91502 0.16973 -0.34225 -295531278653851021491647816141553795072.00000
0.83373 0.17553 -0.32037 -286247492435609956995176136599410835456.00000
0.84833 0.20421 -0.30349 -292862580045431345652276108659093667840.00000
0.85354 0.26128 -0.33942 -278204665166558716301923245679951478784.00000
0.91470 0.28567 -0.34931 -279523488286216958867899567800322097152.00000
0.86858 0.32472 -0.35487 -272840799405186599193276579552102973440.00000
0.89778 0.30763 -0.34093 -279518255424539216736930189409490305024.00000
0.87785 0.35637 -0.33352 -271506399394952752144414665942744694784.00000
0.87498 0.38467 -0.33469 -270166766523041162964583373942554624000.00000
0.83956 0.42436 -0.34760 -276838949115896831073926757514607591424.00000
0.87129 0.41281 -0.33555 -274164875668932187541892704010556669952.00000
0.81754 0.43745 -0.33557 -272851285410951687106885760281017843712.00000
0.84336 0.45405 -0.32417 -266189548259041899607810709543377174528.00000
0.83091 0.50652 -0.32375 -244859511634542413103125734833935876096.00000
0.95782 -0.46564 -0.35966 -282223462370245465583065001944265261056.00000
0.96206 -0.39891 -0.35531 -283531840048957827538772991230223581184.00000
0.99831 -0.38221 -0.33861 -286164314273825381494767528921886883840.00000
0.94173 -0.32202 -0.33744 -290188405186418683861889935418786316288.00000
0.95270 -0.32501 -0.31119 -288833154859112282895832204035106013184.00000
0.97868 -0.24271 -0.35227 -294196939490845985397797174373949374464.00000
0.99469 -0.27915 -0.32933 -284850744298254484711431009139599343616.00000
0.98825 -0.18243 -0.35435 -287535141491707386943710851794554847232.00000
1.00828 -0.21873 -0.33288 -280862979181261322486037892169753165824.00000
1.00091 -0.15398 -0.36025 -286205872931103263767466196839771930624.00000
1.06090 -0.16631 -0.35779 -283537032345816362366401521726552801280.00000
1.05006 -0.06458 -0.38558 -286195589749434212370561255583369920512.00000
1.08245 -0.10160 -0.36705 -279528558888617871785505554613143601152.00000
1.08165 0.00139 -0.40293 -284855814900655397629036995952420847616.00000
1.12128 -0.03488 -0.38626 -278194118313564817433302793109282750464.00000
1.08188 0.03585 -0.40313 -290198749215316546213806148516942184448.00000
1.14993 0.07501 -0.40144 -279518174294900802130248493620485160960.00000
