# .PCD v0.7 - Point Cloud Data file format
VERSION 0.7
FIELDS x y z rgb
SIZE 4 4 4 4
TYPE F F F F
COUNT 1 1 1 1
WIDTH 659
HEIGHT 1
VIEWPOINT 0 0 0 1 0 0 0
POINTS 659
DATA ascii
0.37187 -0.03024 -0.30087 -294212638075879211790705309546444750848.00000
0.37223 -0.01484 -0.29984 -295557503809468543101505979937466613760.00000
0.37163 -0.00704 -0.29674 -291564586960436053351825180365793787904.00000
0.36290 0.00111 -0.28236 -290230146385382998999622418861932937216.00000
0.36872 0.00084 -0.28514 -291564586960436053351825180365793787904.00000
0.36220 0.02235 -0.27973 -292893896085859383831410683215079276544.00000
0.36800 0.01545 -0.28228 -291559455510806329479207921711218425856.00000
0.36267 0.03673 -0.28318 -286216440066506766287757073357691944960.00000
0.36777 0.02997 -0.28232 -287550880641559820639959834861552795648.00000
0.36462 0.05228 -0.29385 -299550400376091429199516355561888153600.00000
0.36949 0.05303 -0.29249 -295547058368522662491237647103054315520.00000
0.36403 0.06724 -0.29538 -292893814956220969224728987426074132480.00000
0.36980 0.06094 -0.29546 -295557503809468543101505979937466613760.00000
0.36303 0.07430 -0.29363 -288885300934203271340492172418162360320.00000
0.36770 0.08334 -0.29430 -291538544346504964607000832095142543360.00000
0.35931 0.09468 -0.28693 -295526268898678919529053101170486149120.00000
0.36532 0.08934 -0.28774 -292867792624699484131575063102674173952.00000
0.37036 -0.08352 -0.29186 -291528200317607102255084618996986675200.00000
0.37434 -0.09291 -0.29007 -299534722073467806458278644336644063232.00000
0.37102 -0.07569 -0.29105 -291528180035197498603414195049735389184.00000
0.37587 -0.07707 -0.28887 -296860729756141577532926286621598285824.00000
0.37315 -0.06092 -0.29332 -292867792624699484131575063102674173952.00000
0.37814 -0.06210 -0.29133 -292867792624699484131575063102674173952.00000
0.37593 -0.03844 -0.29708 -296881519225985320495110832554166452224.00000
0.38109 -0.03928 -0.29532 -300879628371876345072420162622168498176.00000
0.37913 -0.02376 -0.30580 -295547078650932266142908071050305601536.00000
0.38488 -0.03276 -0.30680 -298215959801038374847313594058027302912.00000
0.37795 -0.00757 -0.29970 -291564586960436053351825180365793787904.00000
0.38457 -0.00811 -0.30261 -290230146385382998999622418861932937216.00000
0.37596 0.00045 -0.29205 -290230146385382998999622418861932937216.00000
0.38370 0.00003 -0.29919 -290230146385382998999622418861932937216.00000
0.37511 0.02326 -0.28919 -278220201492315113481467989274436567040.00000
0.38281 0.01593 -0.29601 -263541355166731515607237612731967209472.00000
0.37454 0.03836 -0.28861 -294223063234415488749303218433605763072.00000
0.38088 0.03922 -0.29125 -299560784969808498854773416554546593792.00000
0.37565 0.05433 -0.29525 -292878156936006950135161700148081328128.00000
0.38156 0.04739 -0.29472 -302219240961378330600581030675107282944.00000
0.37482 0.06184 -0.29393 -299550400376091429199516355561888153600.00000
0.38015 0.07104 -0.29489 -294207425496611073311406355102864244736.00000
0.37259 0.08459 -0.29257 -292867792624699484131575063102674173952.00000
0.37894 0.07852 -0.29294 -292867792624699484131575063102674173952.00000
0.36966 0.09858 -0.28751 -295536673774805592835980586110395875328.00000
0.37450 0.10005 -0.28551 -296881519225985320495110832554166452224.00000
0.36626 0.11184 -0.28153 -290219761791665929344365357869274497024.00000
0.37276 0.10685 -0.28254 -296891964666931201105379165388578750464.00000
0.38242 -0.10731 -0.30243 -292852094039666257738666927930178797568.00000
0.38197 -0.09742 -0.29704 -299519084335663391020381781005902544896.00000
0.38008 -0.08650 -0.28711 -300869122083701653507140557946002341888.00000
0.38278 -0.07149 -0.29026 -295562614976688663322452814644790689792.00000
0.38730 -0.08112 -0.28860 -299545106667184876113535705329302503424.00000
0.38489 -0.05600 -0.29238 -302214008099700588469611652284275490816.00000
0.39134 -0.06655 -0.29604 -299565936701847826379061099156373241856.00000
0.38917 -0.04147 -0.30255 -303543317225123918949197155133560979456.00000
0.39633 -0.05192 -0.30723 -299539914370326341285907174832973283328.00000
0.39597 -0.02688 -0.32173 -294212638075879211790705309546444750848.00000
0.40358 -0.02807 -0.32482 -296881519225985320495110832554166452224.00000
0.39686 -0.01834 -0.32353 -290219741509256325692694933922023211008.00000
0.40192 -0.00979 -0.31796 -299565977266667033682401947050875813888.00000
0.39525 0.00786 -0.31686 -303574552135913542521650033900541444096.00000
0.40083 -0.00088 -0.31418 -296902308695829063457295378486734618624.00000
0.39240 0.01627 -0.30778 -296902349260648270760636226381237190656.00000
0.39963 0.02509 -0.31072 -304893233278704559525933388390153060352.00000
0.38927 0.03240 -0.29866 -303569298991826196739010231562458365952.00000
0.39588 0.04145 -0.30073 -304888081546665232001645705788326412288.00000
0.38825 0.04854 -0.29733 -302219220678968726948910606727855996928.00000
0.39298 0.05735 -0.29429 -302219240961378330600581030675107282944.00000
0.38541 0.07211 -0.29303 -291538524064095360955330408147891257344.00000
0.39197 0.06534 -0.29280 -299550319246453014592834659772883009536.00000
0.38414 0.07972 -0.29101 -291538524064095360955330408147891257344.00000
0.38929 0.08949 -0.29084 -294223002387186677794291946591851905024.00000
0.38114 0.09445 -0.28617 -295536673774805592835980586110395875328.00000
0.38761 0.09696 -0.28817 -290219680662027514737683662080269352960.00000
0.37882 0.10966 -0.28447 -295541845789254524011938692659473809408.00000
0.38172 0.11813 -0.27865 -299550359811272221896175507667385581568.00000
0.38204 0.12765 -0.28340 -295547038086113058839567223155803029504.00000
0.40005 -0.12516 -0.30314 -298221010121029684113249156923597520896.00000
0.40140 -0.11632 -0.30320 -299555450696082738465451918427458371584.00000
0.39543 -0.10396 -0.30118 -298210625527312614457992095930939080704.00000
0.40363 -0.09845 -0.30272 -295547038086113058839567223155803029504.00000
0.39629 -0.07650 -0.29453 -294228194684045212621920477088181125120.00000
0.40108 -0.08670 -0.29236 -291548969505041241565598740982303555584.00000
0.40031 -0.06106 -0.30170 -295562614976688663322452814644790689792.00000
0.40573 -0.07134 -0.30035 -286231935827443956163960969057674461184.00000
0.40365 -0.04474 -0.30771 -303543256377895107994185883291807121408.00000
0.40969 -0.05499 -0.30719 -299555450696082738465451918427458371584.00000
0.41341 -0.02986 -0.33326 -299550400376091429199516355561888153600.00000
0.42055 -0.04055 -0.33392 -306222562686537493657189315186689835008.00000
0.40974 -0.01043 -0.32086 -303564086412558058259711277118877859840.00000
0.42098 -0.02120 -0.33275 -302208815802842053641983121787946270720.00000
0.41667 -0.00159 -0.31975 -314223952992768473987766081871771860992.00000
0.41704 0.00768 -0.32058 -311555031277843157980019710969547587584.00000
0.40905 0.01676 -0.31827 -308886129845327445623943764014574600192.00000
0.41348 0.02586 -0.31125 -310220570420380499976146525518435450880.00000
0.40533 0.03414 -0.30845 -310220590702790103627816949465686736896.00000
0.41091 0.04347 -0.30562 -307551689270274391271741002510713749504.00000
0.40099 0.05047 -0.29782 -307551750117503202226752274352467607552.00000
0.40010 0.05881 -0.29658 -304888061264255628349975281841075126272.00000
0.39776 0.07515 -0.29315 -294233366698494143797878583637259059200.00000
0.40480 0.06808 -0.29273 -296907419863049183678242213194058694656.00000
0.39779 0.08402 -0.29535 -295573019852815336629380299584700416000.00000
0.40348 0.08533 -0.29290 -296902227566190648850613682697729474560.00000
0.39581 0.10071 -0.29446 -291564526113207242396813908524039929856.00000
0.40137 0.10226 -0.29182 -296891842972473579195356621705071034368.00000
0.39314 0.11695 -0.29242 -288874794646028579775212567741996204032.00000
0.39761 0.12747 -0.29027 -275546046915712055342752239981380501504.00000
0.39501 0.13453 -0.28623 -290224893241295653216982616523849859072.00000
0.41539 -0.14509 -0.31145 -291548827528174016003905773351544553472.00000
0.40735 -0.12922 -0.30472 -299545045819956065158524433487548645376.00000
0.41859 -0.12618 -0.31195 -291548827528174016003905773351544553472.00000
0.41201 -0.11281 -0.31019 -299545045819956065158524433487548645376.00000
0.42110 -0.10696 -0.31159 -290214447800349772606714283689437560832.00000
0.41474 -0.08454 -0.30841 -284892363802761177939140948899238248448.00000
0.42207 -0.09725 -0.31106 -283552690366030381455968809004545605632.00000
0.42152 -0.06888 -0.32166 -291569637280427362617760743231364005888.00000
0.42984 -0.08168 -0.32553 -296881417813937302236758712817910022144.00000
0.42790 -0.06205 -0.33645 -299571068151477550251678357810948603904.00000
0.43671 -0.05375 -0.33655 -312889390723257797725540776684403294208.00000
0.42933 -0.04222 -0.33677 -306222562686537493657189315186689835008.00000
0.43774 -0.03332 -0.33627 -306222461274489475398837195450433404928.00000
0.42766 -0.02177 -0.33011 -304882868967397093522346751344745906176.00000
0.43450 -0.02236 -0.32727 -303558833268470712477071474780794781696.00000
0.42317 -0.00181 -0.31728 -316871983825802028774975787105171537920.00000
0.43025 0.00759 -0.31547 -310199821515355964317302827480369856512.00000
0.42372 0.01711 -0.31858 -312879066976769539025294987533498712064.00000
0.42830 0.02668 -0.31106 -311539393540038742542122847638806069248.00000
0.41951 0.03537 -0.30856 -310215357841112361496847571074854944768.00000
0.42539 0.04518 -0.30527 -312873813832682193242655185195415633920.00000
0.41461 0.05251 -0.29766 -314218598436633109946774159797432352768.00000
0.41360 0.06126 -0.29632 -307556800437494511492687837218037825536.00000
0.41093 0.07836 -0.29261 -304888020699436421046634433946572554240.00000
0.41695 0.07959 -0.28986 -306217268977630940571208664954104184832.00000
0.40909 0.09585 -0.29199 -299545086384775272461865281382051217408.00000
0.41695 0.08902 -0.29183 -300879506677418723162397618938660782080.00000
0.40869 0.10505 -0.29345 -299545106667184876113535705329302503424.00000
0.41388 0.11600 -0.29146 -294228174401635608970250053140929839104.00000
0.41166 0.13772 -0.31099 -290230126102973395347951994914681651200.00000
0.41856 0.13007 -0.30662 -294233468110542162056230703373515489280.00000
0.40923 0.15674 -0.31208 -294233468110542162056230703373515489280.00000
0.42033 0.15348 -0.31847 -294233447828132558404560279426264203264.00000
0.42706 -0.16157 -0.30694 -299565936701847826379061099156373241856.00000
0.42915 -0.15199 -0.30776 -300900377276900880731263860660234092544.00000
0.42675 -0.13039 -0.31338 -292883268103227070356108534855405404160.00000
0.43107 -0.14229 -0.30840 -296897055551741717674655576148651540480.00000
0.42819 -0.12054 -0.31339 -294217708678280124708311296359266254848.00000
0.43435 -0.12254 -0.30902 -292893733826582554618047291637068988416.00000
0.43355 -0.09211 -0.31747 -298231496126794772026858337652512391168.00000
0.44167 -0.10590 -0.31986 -298231536691613979330199185547014963200.00000
0.44400 -0.07666 -0.33770 -303558772421241901522060202939040923648.00000
0.45080 -0.08929 -0.33550 -298215858388990356588961474321770872832.00000
0.44650 -0.06691 -0.34156 -306222400427260664443825923608679546880.00000
0.45611 -0.05809 -0.34134 -303553519277154555739420400600957845504.00000
0.44564 -0.04494 -0.33620 -312889431288077005028881624578905866240.00000
0.45466 -0.03560 -0.33534 -306227653571348010226465725946762625024.00000
0.44485 -0.01325 -0.33139 -306222542404127890005518891239438548992.00000
0.45216 -0.01369 -0.32810 -307562154993629875533679759292377333760.00000
0.43924 0.00751 -0.31764 -307536193509337201395537106810731233280.00000
0.45296 -0.00321 -0.32944 -304882868967397093522346751344745906176.00000
0.43941 0.01748 -0.31810 -310199780950536757013961979585867284480.00000
0.44413 0.02756 -0.31005 -310210185826663430320889464525777010688.00000
0.44154 0.03719 -0.30485 -308880937548468910796315233518245380096.00000
0.44084 0.04700 -0.30408 -308886129845327445623943764014574600192.00000
0.42913 0.05467 -0.29674 -311544585836897277369751378135135289344.00000
0.43451 0.06485 -0.29220 -303548326980296020911791870104628625408.00000
0.42494 0.08175 -0.29128 -304882828402577886219005903450243334144.00000
0.43129 0.08305 -0.28808 -306217268977630940571208664954104184832.00000
0.42281 0.10002 -0.29034 -296881417813937302236758712817910022144.00000
0.43125 0.09292 -0.28991 -299545066102365668810194857434799931392.00000
0.42163 0.11921 -0.29261 -295562614976688663322452814644790689792.00000
0.43457 0.11549 -0.30212 -296881438096346905888429136765161308160.00000
0.43962 0.14131 -0.31972 -291569698127656173572772015073117863936.00000
0.43849 0.15189 -0.32047 -292904138702709227924974776576978714624.00000
0.43081 0.16009 -0.32545 -295567868120776009105092616982873767936.00000
0.43556 0.17283 -0.32117 -294238579277762282277177538080839565312.00000
0.42915 0.17794 -0.30986 -295573019852815336629380299584700416000.00000
0.44423 -0.18535 -0.31302 -298221030403439287764919580870848806912.00000
0.44117 -0.16900 -0.30180 -298215858388990356588961474321770872832.00000
0.44355 -0.15916 -0.30294 -292878116371187742831820852253578756096.00000
0.43706 -0.14445 -0.30340 -292872903791919604352521897809998249984.00000
0.44774 -0.13902 -0.30458 -287550779229511802381607715125296365568.00000
0.44312 -0.12668 -0.31002 -296876245799488371060800606268832088064.00000
0.45377 -0.12037 -0.31091 -298210706656951029064673791719944224768.00000
0.45189 -0.09879 -0.32054 -290224852676476445913641768629347287040.00000
0.45782 -0.11156 -0.31648 -298215878671399960240631898269022158848.00000
0.46815 -0.09433 -0.33270 -304893233278704559525933388390153060352.00000
0.47151 -0.08416 -0.33732 -310230995578916776934744434405596463104.00000
0.46648 -0.06040 -0.34346 -303548347262705624563462294051879911424.00000
0.47457 -0.07364 -0.34155 -311565415871560227635276771962206027776.00000
0.46775 -0.03786 -0.34339 -302224352128598450821527865382431358976.00000
0.47565 -0.03875 -0.33927 -300879567524647534117408890780414640128.00000
0.46493 -0.01485 -0.33575 -302224352128598450821527865382431358976.00000
0.47435 -0.02694 -0.33572 -303558873833289919780412322675297353728.00000
0.47087 -0.00391 -0.32762 -299555491260901945768792766321960943616.00000
0.47143 0.00721 -0.32856 -298221050685848891416590004818100092928.00000
0.46382 0.01822 -0.33284 -303558792703651505173730626886292209664.00000
0.46608 0.02900 -0.31824 -299565896137028619075720251261870669824.00000
0.45240 0.04873 -0.31044 -300889891271135792817654679931319222272.00000
0.46051 0.03900 -0.30764 -298231455561975564723517489758009819136.00000
0.45132 0.05889 -0.30919 -300889891271135792817654679931319222272.00000
0.45856 0.05980 -0.30549 -292898926123441089445675822133398208512.00000
0.44409 0.08735 -0.29823 -300879506677418723162397618938660782080.00000
0.46022 0.08197 -0.31158 -290204022641813495648116374802276548608.00000
0.44610 0.10967 -0.30674 -295546997521293851536226375261300457472.00000
0.45566 0.10186 -0.30597 -298231536691613979330199185547014963200.00000
0.44722 0.13269 -0.31445 -288895604398281926389067537621815656448.00000
0.45737 0.12544 -0.31420 -287561244952867286643546471906959949824.00000
0.44871 0.14543 -0.32082 -290235257552603119220569253569257013248.00000
0.44749 0.15631 -0.32148 -291564505830797638745143484576788643840.00000
0.44183 0.17524 -0.31622 -296886691240434251671068939103244386304.00000
0.45259 0.16949 -0.31674 -294217789807918539314992992148271398912.00000
0.43300 0.19021 -0.30429 -302214048664519795772952500178778062848.00000
0.43887 0.19266 -0.29885 -298205514360092494237045261223615004672.00000
0.46244 -0.19737 -0.31285 -300879526959828326814068042885912068096.00000
0.44987 -0.17437 -0.30177 -295546997521293851536226375261300457472.00000
0.45583 -0.17666 -0.29538 -292893774391401761921388139531571560448.00000
0.45690 -0.14364 -0.30489 -295573080700044147584391571426454274048.00000
0.46338 -0.14584 -0.29910 -292878197500826157438502548042583900160.00000
0.46336 -0.12451 -0.31151 -288911302983315152781975672794311032832.00000
0.47025 -0.12659 -0.30601 -290214528929988187213395979478442704896.00000
0.47180 -0.10600 -0.32270 -302213987817290984817941228337024204800.00000
0.47916 -0.10791 -0.31739 -302208775238022846338642273893443698688.00000
0.47564 -0.09610 -0.32778 -300879506677418723162397618938660782080.00000
0.48698 -0.08746 -0.32736 -303543175248256693387504187502801977344.00000
0.48243 -0.07513 -0.33681 -310220570420380499976146525518435450880.00000
0.49350 -0.06545 -0.33572 -302213926970062173862929956495270346752.00000
0.48369 -0.03965 -0.33487 -299539934652735944937577598780224569344.00000
0.49286 -0.05295 -0.33312 -310204952964985688189920086134945218560.00000
0.48238 -0.02763 -0.33143 -302219240961378330600581030675107282944.00000
0.49376 -0.02892 -0.33264 -304877676670538558694718220848416686080.00000
0.48233 0.00712 -0.33004 -294238538712943074973836690186336993280.00000
0.49306 -0.00488 -0.33028 -302234777287134727780125774269592371200.00000
0.47960 0.01854 -0.32493 -298236668141243703202816444201590325248.00000
0.48170 0.02973 -0.30998 -296907419863049183678242213194058694656.00000
0.46463 0.04966 -0.29806 -296897096116560924977996424043154112512.00000
0.47300 0.03971 -0.29481 -296907460427868390981583061088561266688.00000
0.46594 0.06073 -0.30153 -290230105820563791696281570967430365184.00000
0.46955 0.07282 -0.30965 -279559814081817099009628857327375351808.00000
0.47344 0.09717 -0.32037 -283568368668654004197206520229789696000.00000
0.48365 0.08789 -0.31852 -287576984102719720339795454973957898240.00000
0.47074 0.10756 -0.31714 -290230166667792602651292842809184223232.00000
0.47827 0.10928 -0.31233 -287561285517686493946887319801462521856.00000
0.46716 0.12913 -0.31486 -291548989787450845217269164929554841600.00000
0.47346 0.14271 -0.31064 -292878156936006950135161700148081328128.00000
0.46370 0.16323 -0.31694 -291543716360953895782958938644220477440.00000
0.47062 0.16560 -0.31135 -290198870909774168123828692200449900544.00000
0.45921 0.17189 -0.31135 -295541845789254524011938692659473809408.00000
0.46378 0.18522 -0.30519 -290188466033647494816901207260540174336.00000
0.44731 0.19797 -0.29851 -288859217755452975292326976253008543744.00000
0.45332 0.20045 -0.29242 -295531380065899039749999935877810225152.00000
0.45054 0.21041 -0.29110 -291522906608700549169103968764401025024.00000
0.47570 -0.20775 -0.31926 -302203582941164311511013743397114478592.00000
0.48997 -0.21891 -0.32582 -304872423526451212912078418510333607936.00000
0.48254 -0.20051 -0.32776 -302213947252471777514600380442521632768.00000
0.48461 -0.18417 -0.30786 -299534661226238995503267372494890205184.00000
0.47626 -0.15336 -0.30464 -299545066102365668810194857434799931392.00000
0.48386 -0.16971 -0.30287 -296870992655401025278160803930749009920.00000
0.48178 -0.14478 -0.31144 -296876205234669163757459758374329516032.00000
0.49444 -0.13786 -0.31153 -300879506677418723162397618938660782080.00000
0.48530 -0.12160 -0.31196 -303532831219358831035587974404646109184.00000
0.49759 -0.11375 -0.31161 -304872423526451212912078418510333607936.00000
0.50219 -0.10334 -0.31704 -300879506677418723162397618938660782080.00000
0.50646 -0.09246 -0.32207 -299545066102365668810194857434799931392.00000
0.50178 -0.06680 -0.33041 -304877595540900144088036525059411542016.00000
0.51018 -0.06817 -0.32476 -300889911553545396469325103878570508288.00000
0.50466 -0.05511 -0.33398 -308865259245845288055077522293001289728.00000
0.51323 -0.05630 -0.32839 -306201752934284147043334345306870382592.00000
0.50563 -0.03026 -0.33356 -303538023516217365863216504900975329280.00000
0.51433 -0.03101 -0.32815 -302208836085251657293653545735197556736.00000
0.50220 0.00696 -0.32641 -299565835289799808120708979420116811776.00000
0.51362 -0.00568 -0.32591 -298215919236219167543972746163524730880.00000
0.49916 0.01900 -0.32127 -296891802407654371892015773810568462336.00000
0.50418 0.03108 -0.31075 -290224812111657238610300920734844715008.00000
0.48067 0.04027 -0.29039 -298221091250668098719930852712602664960.00000
0.49724 0.04214 -0.29997 -300884698974277257990026149434990002176.00000
0.49081 0.07703 -0.31071 -299540036064783963195929718516480999424.00000
0.49773 0.06591 -0.30244 -303522426343232157728660489464736382976.00000
0.49520 0.10303 -0.32151 -299534803203106221064960340125649207296.00000
0.50626 0.09316 -0.31908 -291543716360953895782958938644220477440.00000
0.49207 0.11405 -0.31801 -295541825506844920360268268712222523392.00000
0.50003 0.11586 -0.31239 -290214447800349772606714283689437560832.00000
0.49556 0.13901 -0.30942 -286221490386498075553692636223262162944.00000
0.49441 0.15127 -0.31008 -295541744377206505753586572923217379328.00000
0.48068 0.17044 -0.31103 -291533270920008015172690605809808179200.00000
0.48781 0.17287 -0.30471 -291538463216866550000319136306137399296.00000
0.47335 0.19051 -0.30456 -288869582066760441295913613298415697920.00000
0.48567 0.18451 -0.30429 -283531819766548223887102567282972295168.00000
0.46782 0.19850 -0.29807 -290198870909774168123828692200449900544.00000
0.47127 0.21162 -0.29000 -287540435200613940029691502027140497408.00000
0.50170 -0.24310 -0.33099 -300874212968512170076416968706075131904.00000
0.51305 -0.25110 -0.32957 -298210625527312614457992095930939080704.00000
0.50430 -0.21406 -0.32633 -286174638020313640195013318072791465984.00000
0.52903 -0.21756 -0.34201 -295526126921811693967360133539727147008.00000
0.49811 -0.17862 -0.30817 -298184603195791129364838171607539122176.00000
0.52532 -0.18280 -0.32862 -298184603195791129364838171607539122176.00000
0.51353 -0.14800 -0.32367 -296865780076132886798861849487168503808.00000
0.52134 -0.15035 -0.31618 -299519043770844183717040933111399972864.00000
0.51133 -0.13267 -0.31734 -299534661226238995503267372494890205184.00000
0.52913 -0.12656 -0.32277 -299534661226238995503267372494890205184.00000
0.51393 -0.10710 -0.31669 -302213947252471777514600380442521632768.00000
0.52692 -0.09769 -0.31515 -299545066102365668810194857434799931392.00000
0.52251 -0.07084 -0.32473 -292883268103227070356108534855405404160.00000
0.53124 -0.07226 -0.31823 -300889911553545396469325103878570508288.00000
0.52191 -0.05749 -0.32243 -302198431209124983986726060795287830528.00000
0.53362 -0.04610 -0.31932 -300863990634071929634523299291426979840.00000
0.52493 -0.01908 -0.32448 -294202192634933331180436976712032452608.00000
0.53605 -0.03321 -0.32203 -294202192634933331180436976712032452608.00000
0.52324 0.00680 -0.32128 -292883369515275088614460654591661834240.00000
0.53934 -0.00679 -0.32579 -299550359811272221896175507667385581568.00000
0.52350 0.01962 -0.32175 -290224852676476445913641768629347287040.00000
0.53228 0.03287 -0.31564 -298221030403439287764919580870848806912.00000
0.50869 0.04321 -0.29968 -304888020699436421046634433946572554240.00000
0.52645 0.05804 -0.30833 -299545066102365668810194857434799931392.00000
0.51253 0.06861 -0.30729 -303538043798626969514886928848226615296.00000
0.52235 0.08287 -0.30441 -290198911474593375427169540094952472576.00000
0.51825 0.09595 -0.31884 -294196980055665192701138022268451946496.00000
0.52689 0.09748 -0.31253 -283526708599328103666155732575648219136.00000
0.51155 0.11934 -0.31189 -292872903791919604352521897809998249984.00000
0.51925 0.13436 -0.30672 -283557882662888916283597339500874825728.00000
0.50672 0.14315 -0.30870 -290214407235530565303373435794934988800.00000
0.51462 0.14532 -0.30202 -286226763812995024988002862508596527104.00000
0.49838 0.17792 -0.30360 -287529989759668059419423169192728199168.00000
0.50568 0.18039 -0.29647 -283526688316918500014485308628396933120.00000
0.49607 0.18986 -0.30307 -284861128891971554366688070132257783808.00000
0.50037 0.20419 -0.29471 -287524858310038335546805910538152837120.00000
0.48715 0.20982 -0.29534 -292867792624699484131575063102674173952.00000
0.48400 0.22088 -0.29391 -290209316350720048734097025034862198784.00000
0.48061 0.23169 -0.29224 -286205994625560885677488740523279646720.00000
0.48292 0.24474 -0.28217 -280863100875718944396060435853260881920.00000
0.53026 -0.26538 -0.33623 -296876164669849956454118910479826944000.00000
0.55327 -0.26690 -0.34468 -298215756976942338330609354585514442752.00000
0.53824 -0.23876 -0.33936 -296870952090581817974819956036246437888.00000
0.55517 -0.23291 -0.33879 -291538402369637739045307864464383541248.00000
0.55071 -0.21582 -0.34992 -296870952090581817974819956036246437888.00000
0.56194 -0.20411 -0.34081 -294207283519743847749713387472105242624.00000
0.55085 -0.18282 -0.34295 -298205392665634872327022717540107288576.00000
0.56724 -0.17445 -0.34166 -298210605244903010806321671983687794688.00000
0.54504 -0.14777 -0.32856 -307520474641894371350958547690984570880.00000
0.56383 -0.15617 -0.33413 -299534661226238995503267372494890205184.00000
0.54323 -0.11721 -0.32114 -307530899800430648309556456578145583104.00000
0.55755 -0.10704 -0.31879 -308875745251610375968686703021916160000.00000
0.54008 -0.08751 -0.31290 -298210625527312614457992095930939080704.00000
0.55332 -0.07654 -0.30986 -295541744377206505753586572923217379328.00000
0.54372 -0.06105 -0.31517 -300863990634071929634523299291426979840.00000
0.55280 -0.06230 -0.30790 -299524296914931529499680735449483051008.00000
0.54725 -0.02065 -0.31755 -306212157810410820350261830246780108800.00000
0.55888 -0.03552 -0.31406 -288853984893775233161357597862176751616.00000
0.54958 0.00657 -0.32021 -299545147232004083416876553223805075456.00000
0.56260 -0.00769 -0.31794 -300863929786843118679512027449673121792.00000
0.54957 0.03403 -0.32054 -299545066102365668810194857434799931392.00000
0.56383 0.02066 -0.31944 -298184724890248751274860715291046838272.00000
0.54456 0.04711 -0.31410 -290214366670711358000032587900432416768.00000
0.55660 0.06215 -0.31143 -286221530951317282857033484117764734976.00000
0.53475 0.08530 -0.30324 -283552751213259192410980080846299463680.00000
0.54760 0.08781 -0.30162 -296891903819702390150367893546824892416.00000
0.53561 0.09903 -0.30583 -268879117466943733016048658747410612224.00000
0.54471 0.11460 -0.30069 -292883369515275088614460654591661834240.00000
0.53133 0.13840 -0.30526 -283573540683102935373164626778867630080.00000
0.54873 0.13050 -0.30790 -291543716360953895782958938644220477440.00000
0.52879 0.16523 -0.30641 -290209275785900841430756177140359626752.00000
0.55144 0.16134 -0.31596 -287540394635794732726350654132637925376.00000
0.52689 0.17844 -0.30641 -286205994625560885677488740523279646720.00000
0.53227 0.19405 -0.29777 -280878657483884945227275603394997256192.00000
0.51103 0.21002 -0.29247 -278194179160793628388314064951036608512.00000
0.52202 0.21602 -0.28977 -283547558916400657583351550349970243584.00000
0.51205 0.24129 -0.30149 -279544277756060701830084113732890263552.00000
0.52693 0.23585 -0.30034 -280878677766294548878946027342248542208.00000
0.51239 0.25756 -0.30619 -282213138623757206882819212793360678912.00000
0.51906 0.27696 -0.30122 -282202693182811326272550879958948380672.00000
0.56454 -0.31252 -0.34856 -299555329001625116555429374743950655488.00000
0.57385 -0.28293 -0.35168 -298215736694532734678938930638263156736.00000
0.57640 -0.30048 -0.33753 -296881275837070076675065745187151020032.00000
0.57136 -0.26148 -0.34378 -296881296119479680326736169134402306048.00000
0.59019 -0.25530 -0.34232 -296886569545976629761046395419736670208.00000
0.58250 -0.21607 -0.34698 -294217688395870521056640872412014968832.00000
0.59100 -0.21890 -0.33593 -299550197551995392682812116089375293440.00000
0.58547 -0.20048 -0.34750 -295546916391655436929544679472295313408.00000
0.60366 -0.19148 -0.34524 -302224250716550432563175745646174928896.00000
0.58407 -0.16522 -0.33967 -298215817824171149285620626427268300800.00000
0.60126 -0.15505 -0.33688 -296886569545976629761046395419736670208.00000
0.58133 -0.13099 -0.33126 -303553580124383366694431672442711703552.00000
0.59737 -0.11977 -0.32783 -300884698974277257990026149434990002176.00000
0.57200 -0.09601 -0.31562 -302213947252471777514600380442521632768.00000
0.59183 -0.08575 -0.31791 -300869101801292049855470133998751055872.00000
0.57010 -0.05110 -0.30938 -304856806071056401125851979126843375616.00000
0.58458 -0.05319 -0.30697 -299545045819956065158524433487548645376.00000
0.58024 -0.02334 -0.32059 -306191246646109455478054740630704226304.00000
0.59290 -0.03953 -0.31599 -300884678691867654338355725487738716160.00000
0.58291 0.00627 -0.32336 -300863950069252722331182451396924407808.00000
0.59304 0.00620 -0.31498 -298215858388990356588961474321770872832.00000
0.58831 0.02123 -0.30947 -296881519225985320495110832554166452224.00000
0.58792 0.03619 -0.30928 -298215919236219167543972746163524730880.00000
0.57223 0.04970 -0.31089 -298215919236219167543972746163524730880.00000
0.58502 0.06577 -0.30706 -299545106667184876113535705329302503424.00000
0.56826 0.07794 -0.30757 -298221091250668098719930852712602664960.00000
0.57940 0.09442 -0.30245 -296871033220220232581501651825251581952.00000
0.56220 0.11977 -0.30403 -294191767476397054221839067824871440384.00000
0.58043 0.10982 -0.30503 -298205473795273286933704413329112432640.00000
0.57088 0.15387 -0.31899 -290193638048096425992859313809618108416.00000
0.60190 0.16683 -0.33647 -291538463216866550000319136306137399296.00000
0.58015 0.17472 -0.33330 -286205933778332074722477468681525788672.00000
0.59936 0.19998 -0.33849 -282223482652655069234735425891516547072.00000
0.55356 0.20642 -0.30710 -279554621784958564182000326831046131712.00000
0.58279 0.22411 -0.32402 -280878657483884945227275603394997256192.00000
0.55052 0.22021 -0.30625 -282223523217474276538076273786019119104.00000
0.56854 0.23080 -0.30942 -282213098058937999579478364898858106880.00000
0.55470 0.27483 -0.32313 -278209776333778836522870080387275554816.00000
0.56201 0.27768 -0.31211 -279544216908831890875072841891136405504.00000
0.54031 0.29594 -0.31197 -282202672900401722620880456011697094656.00000
0.55734 0.29129 -0.31020 -279544216908831890875072841891136405504.00000
0.53543 0.30863 -0.30979 -280868232325348668268677694507836243968.00000
0.54721 0.31750 -0.30577 -274196029450083396507663886988531990528.00000
0.58798 -0.34992 -0.34020 -294227910730310761498534541826663120896.00000
0.60022 -0.33698 -0.32765 -296886387004290196896012579894475096064.00000
0.59606 -0.29563 -0.33577 -298215756976942338330609354585514442752.00000
0.60593 -0.32161 -0.32969 -299555268154396305600418102902196797440.00000
0.60095 -0.28014 -0.33746 -296870952090581817974819956036246437888.00000
0.62144 -0.27376 -0.33494 -298221010121029684113249156923597520896.00000
0.60975 -0.24830 -0.34019 -300874273815740981031428240547828989952.00000
0.62592 -0.25721 -0.33626 -295552128970923575408843633915875819520.00000
0.61989 -0.19853 -0.34218 -304861896955866917695128389886916165632.00000
0.63672 -0.20586 -0.33846 -303527456380813863342925628383055314944.00000
0.62230 -0.18149 -0.34215 -298205311535996457720341021751102144512.00000
0.63930 -0.18825 -0.33850 -302203420681887482297650351819104190464.00000
0.61872 -0.14388 -0.33319 -298210605244903010806321671983687794688.00000
0.63636 -0.13168 -0.32850 -296876245799488371060800606268832088064.00000
0.61975 -0.10978 -0.33051 -296876184952259560105789334427078230016.00000
0.62990 -0.11168 -0.31984 -296876225517078767409130182321580802048.00000
0.62447 -0.07728 -0.33293 -299555410131263531162111070532955799552.00000
0.64165 -0.08039 -0.32949 -298210584962493407154651248036436508672.00000
0.62283 -0.02698 -0.32850 -295547017803703455187896799208551743488.00000
0.63990 -0.02829 -0.32509 -303553580124383366694431672442711703552.00000
0.60749 -0.00960 -0.31102 -292878177218416553786832124095332614144.00000
0.61896 0.00600 -0.30252 -300879547242237930465738466833163354112.00000
0.59792 0.03665 -0.30052 -296871094067449043536512923667005440000.00000
0.60793 0.03712 -0.29124 -302213967534881381166270804389772918784.00000
0.59675 0.05179 -0.29971 -296876225517078767409130182321580802048.00000
0.61204 0.05321 -0.29603 -303548387827524831866803141946382483456.00000
0.59394 0.09727 -0.29926 -294207283519743847749713387472105242624.00000
0.61819 0.08636 -0.30411 -298210605244903010806321671983687794688.00000
0.61812 0.13771 -0.32954 -298189775210240060540796278156617056256.00000
0.63383 0.12432 -0.32324 -296870952090581817974819956036246437888.00000
0.62424 0.17531 -0.34061 -290209316350720048734097025034862198784.00000
0.64158 0.16285 -0.33509 -286200700916654332591508090290693996544.00000
0.62165 0.21032 -0.34278 -286216419784097162636086649410440658944.00000
0.63128 0.21315 -0.33108 -242169455648810092054797610895871574016.00000
0.59730 0.23112 -0.32030 -283542326054722915452382171959138451456.00000
0.61540 0.22204 -0.31643 -262186064274605907337839033453784334336.00000
0.58787 0.24218 -0.31237 -282207885479669861100179410455277600768.00000
0.58399 0.25710 -0.31117 -278199351175242559564272171500114542592.00000
0.58582 0.27704 -0.31706 -272872014033566619114059034371832152064.00000
0.59348 0.27991 -0.30493 -278209776333778836522870080387275554816.00000
0.57626 0.30604 -0.31348 -278204563754510698043571125943695048704.00000
0.57765 0.32260 -0.29857 -280868232325348668268677694507836243968.00000
0.57181 0.33609 -0.29606 -280868232325348668268677694507836243968.00000
0.65016 -0.41064 -0.36704 -295551946429237142543809818390614245376.00000
0.66894 -0.42630 -0.36217 -296886387004290196896012579894475096064.00000
0.65610 -0.34380 -0.35836 -300884577279819636080003605751482286080.00000
0.68630 -0.36737 -0.36513 -298215675847303923723927658796509298688.00000
0.66125 -0.32532 -0.35947 -298215716412123131027268506691011870720.00000
0.68526 -0.31818 -0.35536 -294222900975138659535939826855595474944.00000
0.65572 -0.25523 -0.34192 -295567746426318387195070073299366051840.00000
0.66466 -0.25815 -0.32746 -298221010121029684113249156923597520896.00000
0.66873 -0.23990 -0.32832 -296886569545976629761046395419736670208.00000
0.67225 -0.22135 -0.32884 -298210605244903010806321671983687794688.00000
0.65905 -0.17687 -0.33381 -299550238116814599986152963983877865472.00000
0.66903 -0.17942 -0.32062 -294217708678280124708311296359266254848.00000
0.66053 -0.15831 -0.33306 -299545066102365668810194857434799931392.00000
0.66399 -0.13883 -0.31172 -295552128970923575408843633915875819520.00000
0.64000 -0.11357 -0.30860 -299539954935145548589248022727475855360.00000
0.65001 -0.11545 -0.29679 -298220969556210476809908309029094948864.00000
0.65944 -0.08362 -0.32532 -299545045819956065158524433487548645376.00000
0.67194 -0.06806 -0.33670 -302208714390794035383631002051689840640.00000
0.68399 -0.05139 -0.34781 -302213926970062173862929956495270346752.00000
0.70411 -0.05366 -0.34305 -302208714390794035383631002051689840640.00000
0.66688 -0.01255 -0.32977 -302219078702101501387217639097096994816.00000
0.67235 0.00548 -0.31221 -296896994704512906719644304306897682432.00000
0.63508 0.03899 -0.29842 -299545045819956065158524433487548645376.00000
0.65240 0.02286 -0.29365 -295562574411869456019111966750288117760.00000
0.66382 0.07737 -0.32816 -296876184952259560105789334427078230016.00000
0.67046 0.05955 -0.31126 -292872863227100397049181049915495677952.00000
0.67494 0.09803 -0.34021 -295541744377206505753586572923217379328.00000
0.69759 0.12164 -0.33957 -296860547214455144667892471096336711680.00000
0.66507 0.13281 -0.33302 -298205392665634872327022717540107288576.00000
0.68491 0.15708 -0.33070 -291538463216866550000319136306137399296.00000
0.66630 0.19061 -0.34003 -280873444904616806747976648951416750080.00000
0.68532 0.17704 -0.33298 -287556012091189544512577093516128157696.00000
0.65748 0.20579 -0.33342 -284861149174381158018358494079509069824.00000
0.64806 0.22008 -0.32633 -286195569467024608718890831636118634496.00000
0.63812 0.23344 -0.31880 -287524797462809524591794638696398979072.00000
0.64365 0.25358 -0.30513 -287498795413697643150311138320250306560.00000
0.61252 0.27302 -0.30127 -287519645730770197067506956094572331008.00000
0.63949 0.27054 -0.30410 -283511091143933291879929293192157986816.00000
0.61670 0.31636 -0.31317 -283537012063406758714731097779301515264.00000
0.63745 0.30987 -0.30893 -283531779201729016583761719388469723136.00000
0.59788 0.33936 -0.30078 -282202530923534497059187488380938092544.00000
0.61817 0.33454 -0.29690 -282202470076305686104176216539184234496.00000
0.59275 0.37622 -0.30420 -279523386874168940609547448064065667072.00000
0.62166 0.38181 -0.30925 -278188865169477471650662990771199672320.00000
0.72309 -0.45194 -0.38553 -296886407286699800547683003841726382080.00000
0.73054 -0.45432 -0.36487 -300889688447039756300950440458806362112.00000
0.73391 -0.40653 -0.38576 -299550116422356978076130420300370149376.00000
0.74231 -0.40943 -0.36583 -295546794697197815019522135788787597312.00000
0.72054 -0.36374 -0.34180 -295546896109245833277874255525044027392.00000
0.72610 -0.34292 -0.34276 -294207303802153451401383811419356528640.00000
0.68823 -0.29364 -0.32969 -295552128970923575408843633915875819520.00000
0.69162 -0.27039 -0.30549 -295541724094796902101916148975966093312.00000
0.68725 -0.24871 -0.32227 -300879486395009119510727194991409496064.00000
0.69632 -0.25152 -0.30661 -295541724094796902101916148975966093312.00000
0.69407 -0.21009 -0.32300 -295536511515528763622617194532385587200.00000
0.71616 -0.19755 -0.31594 -294196898926026778094456326479446802432.00000
0.68931 -0.16672 -0.31416 -295541724094796902101916148975966093312.00000
0.68208 -0.14402 -0.30579 -295541724094796902101916148975966093312.00000
0.68218 -0.10572 -0.30280 -303553519277154555739420400600957845504.00000
0.68482 -0.12415 -0.28410 -302208673825974828080290154157187268608.00000
0.71116 -0.07383 -0.32612 -296876164669849956454118910479826944000.00000
0.71652 -0.09398 -0.30787 -298215797541761545633950202480017014784.00000
0.72878 -0.03602 -0.34012 -300879486395009119510727194991409496064.00000
0.74651 -0.05845 -0.33077 -298210605244903010806321671983687794688.00000
0.72241 -0.01518 -0.33413 -304877595540900144088036525059411542016.00000
0.73604 0.00487 -0.32098 -296881377249118094933417864923407450112.00000
0.69840 0.04335 -0.31325 -291554040107442154483204727795125059584.00000
0.73640 0.02541 -0.32134 -292893693261763347314706443742566416384.00000
0.72738 0.08666 -0.33993 -298200220651185941151064610991029354496.00000
0.74898 0.08948 -0.33321 -299534661226238995503267372494890205184.00000
0.72687 0.12808 -0.34170 -296860547214455144667892471096336711680.00000
0.74840 0.13240 -0.33490 -295536511515528763622617194532385587200.00000
0.72040 0.14711 -0.33742 -292862458350973723742253564975585951744.00000
0.74146 0.15209 -0.33056 -292862458350973723742253564975585951744.00000
0.70462 0.18295 -0.32690 -288890452666242598864779855019989008384.00000
0.74403 0.21942 -0.33839 -278214988913046975002169034830856060928.00000
0.68557 0.21532 -0.31406 -280868232325348668268677694507836243968.00000
0.69289 0.23745 -0.29968 -271506338547723941189403394100990836736.00000
0.66005 0.26156 -0.29859 -283495433123719272790362005914165182464.00000
0.68102 0.25147 -0.29203 -275504447693614965766712724168992882688.00000
0.65890 0.30243 -0.30381 -282181802300919565052014214290123784192.00000
0.67575 0.31200 -0.29634 -274180371429869377418096599710539186176.00000
0.64764 0.33633 -0.30031 -282186933750549288924631472944699146240.00000
0.67002 0.32964 -0.29467 -279523326026940129654536176222311809024.00000
0.65306 0.38699 -0.31385 -279518113447671991175237221778731302912.00000
0.67664 0.38179 -0.30828 -279523346309349733306206600169563095040.00000
0.65626 0.41449 -0.32165 -279513002280451870954290387071407226880.00000
0.67762 0.45875 -0.32294 -271522016850347563930641105326234927104.00000
0.77674 -0.46565 -0.37263 -291543452689629048311243427329953759232.00000
0.76581 -0.42604 -0.35854 -291543533819267462917925123118958903296.00000
0.75628 -0.38975 -0.34615 -295541724094796902101916148975966093312.00000
0.77042 -0.37004 -0.32644 -296865800358542490450532273434419789824.00000
0.72778 -0.31583 -0.31496 -299534661226238995503267372494890205184.00000
0.76716 -0.31508 -0.31711 -300858656360346169245201801164338757632.00000
0.71974 -0.24079 -0.29956 -302213866122833362907918684653516488704.00000
0.75895 -0.28475 -0.30789 -306196418660558386654012847179782160384.00000
0.74481 -0.23176 -0.31709 -302219078702101501387217639097096994816.00000
0.81987 -0.26803 -0.34800 -307530818670792233702874760789140439040.00000
0.72825 -0.17938 -0.29958 -302208714390794035383631002051689840640.00000
0.79518 -0.18124 -0.32308 -302208714390794035383631002051689840640.00000
0.72004 -0.11391 -0.28839 -302208673825974828080290154157187268608.00000
0.75015 -0.14267 -0.28859 -302208694108384431731960578104438554624.00000
0.76318 -0.08195 -0.31961 -300884698974277257990026149434990002176.00000
0.82134 -0.09201 -0.33644 -302208734673203639035301425998941126656.00000
0.77313 -0.03949 -0.32584 -298215838106580752937291050374519586816.00000
0.79640 -0.04132 -0.31705 -295541744377206505753586572923217379328.00000
0.76750 0.00457 -0.32096 -296876184952259560105789334427078230016.00000
0.79963 -0.01866 -0.31899 -300879506677418723162397618938660782080.00000
0.77726 0.04879 -0.32879 -296865780076132886798861849487168503808.00000
0.80181 0.02726 -0.32044 -296876184952259560105789334427078230016.00000
0.77494 0.07076 -0.32751 -299534661226238995503267372494890205184.00000
0.80571 0.09731 -0.32473 -296876184952259560105789334427078230016.00000
0.76640 0.11359 -0.32259 -295531339501079832446659087983307653120.00000
0.79361 0.14152 -0.31809 -288874754081209372471871719847493632000.00000
0.76512 0.18044 -0.32576 -288864410052311510119955506749337763840.00000
0.78565 0.16256 -0.31367 -291538463216866550000319136306137399296.00000
0.77721 0.20819 -0.33711 -284861108609561950715017646185006497792.00000
0.85489 0.23690 -0.36779 -287524838027628731895135486590901551104.00000
0.74320 0.23947 -0.31461 -282192268024275049313952971071787368448.00000
0.85688 0.32135 -0.37699 -272856457425400618282843866830095777792.00000
0.74515 0.31124 -0.32432 -267513441981101055091393018476569296896.00000
0.82408 0.33096 -0.35547 -264849813975082292169627297806930673664.00000
0.74785 0.36324 -0.33328 -279523386874168940609547448064065667072.00000
0.79799 0.39720 -0.34589 -275525298010687519683908541943314907136.00000
0.72406 0.39554 -0.32108 -276859718303330970384440879499924471808.00000
0.77800 0.40975 -0.33422 -275530510589955658163207496386895413248.00000
0.73699 0.46162 -0.34086 -264844702807862171948680463099606597632.00000
0.78100 0.46990 -0.34498 -262186267098701943854543272926297194496.00000
0.72313 0.50467 -0.33872 -258172601344644918446018775316558774272.00000
0.81025 -0.48785 -0.34080 -288874591821932543258508328269483343872.00000
0.81727 -0.48998 -0.31652 -284876584088089536939551117937737728000.00000
0.82230 -0.43637 -0.34102 -290204002359403891996445950855025262592.00000
0.85522 -0.42771 -0.33024 -283537072910635569669742369621055373312.00000
0.81577 -0.37237 -0.32877 -296844929759060332881666031712846479360.00000
0.84184 -0.38748 -0.31782 -287529989759668059419423169192728199168.00000
0.85826 -0.34256 -0.35218 -299524195502883511241328615713226620928.00000
0.88720 -0.35699 -0.34109 -291528038058330273041721227418976387072.00000
0.89833 -0.27563 -0.37136 -294191625499529828660146100194112438272.00000
0.93015 -0.31885 -0.36295 -292867630365422654918211671524663885824.00000
0.91560 -0.25345 -0.38073 -298194947224688991716754384705694990336.00000
0.96932 -0.27325 -0.38276 -299524215785293114892999039660477906944.00000
0.92726 -0.19825 -0.38444 -302213886405242966559589108600767774720.00000
0.98125 -0.21368 -0.38604 -298210605244903010806321671983687794688.00000
0.90726 -0.10711 -0.36663 -306206864101504267264281180014194458624.00000
0.95685 -0.11529 -0.36649 -298200220651185941151064610991029354496.00000
0.86799 -0.07377 -0.33947 -302203542376345104207672895502611906560.00000
0.87209 -0.04780 -0.31249 -302187924920950292421446456119121674240.00000
0.85114 0.00376 -0.32703 -299545066102365668810194857434799931392.00000
0.87586 -0.02228 -0.31444 -300853484345897238069243694615260823552.00000
0.85149 0.02873 -0.32732 -295552149253333179060514057863127105536.00000
0.89145 0.05640 -0.32424 -295536511515528763622617194532385587200.00000
0.85632 0.10483 -0.33205 -295552149253333179060514057863127105536.00000
0.90346 0.08445 -0.33216 -294196898926026778094456326479446802432.00000
0.85024 0.12915 -0.32893 -295552149253333179060514057863127105536.00000
0.90737 0.13996 -0.33629 -294202131787704520225425704870278594560.00000
0.91322 0.22826 -0.37588 -295531481477947058008352055614066655232.00000
0.92140 0.20009 -0.34770 -291533270920008015172690605809808179200.00000
0.95559 0.27419 -0.40684 -290188547163285909423582903049545318400.00000
0.97360 0.31125 -0.38669 -282187136574645325441335712417212006400.00000
0.92308 0.35386 -0.39269 -274175239980239653545479341055963824128.00000
0.95504 0.33521 -0.37750 -282176711416109048482737803530050994176.00000
0.88254 0.39276 -0.37091 -267503037104974381784465533536659570688.00000
0.91472 0.37774 -0.35740 -270166766523041162964583373942554624000.00000
0.86128 0.40947 -0.35941 -275509680555292707897682102559824674816.00000
0.87129 0.41281 -0.33555 -274170088248200326021191658454137176064.00000
0.83459 0.45101 -0.34791 -275504569388072587676735267852500598784.00000
0.88157 0.48417 -0.34980 -268842811953753196525989793167608643584.00000
0.96206 -0.39891 -0.35531 -284861108609561950715017646185006497792.00000
1.02428 -0.39639 -0.35279 -284835126842859672925204569756109111296.00000
0.98638 -0.34442 -0.36383 -286185103743669124456952074854455050240.00000
1.02109 -0.32415 -0.34575 -287509159725005109153897775365657460736.00000
1.00072 -0.25068 -0.36507 -294196898926026778094456326479446802432.00000
1.01373 -0.25342 -0.33753 -284850764580664088363101433086850629632.00000
1.01762 -0.22339 -0.37295 -290193577200867615037848041967864250368.00000
1.03123 -0.22594 -0.34505 -283521496020059965186856778132067713024.00000
1.01172 -0.12436 -0.36529 -288869521219531630340902341456661839872.00000
1.03709 -0.16094 -0.34525 -284861047762333139760006374343252639744.00000
0.96027 -0.08531 -0.33499 -286200660351835125288167242396191424512.00000
0.99963 -0.05918 -0.32304 -280847422573095321654822724628016791552.00000
0.97324 0.00255 -0.34119 -286185164590897935411963346696208908288.00000
1.02496 -0.02974 -0.33590 -280847442855504925306493148575268077568.00000
1.01316 0.03364 -0.36399 -286185144308488331760292922748957622272.00000
1.09563 0.07095 -0.37303 -280836916284920630089543119951850635264.00000
0.96808 0.09151 -0.33911 -284855855465474604932377843846923419648.00000
1.05977 0.13526 -0.35558 -284850703733435277408090161245096771584.00000
0.99317 0.15656 -0.35521 -291528017775920669390050803471725101056.00000
1.05085 0.16724 -0.35190 -296860668908912766577915014779844427776.00000
0.99876 0.25364 -0.36295 -279523386874168940609547448064065667072.00000
1.02685 0.22794 -0.34192 -283516324005611034010898671582989778944.00000
0.98286 0.28030 -0.35571 -278183774284666955081386580011126882304.00000
0.99917 0.31755 -0.33281 -283521516302469568838527202079318999040.00000
0.94685 0.32869 -0.33920 -282176772263337859437749075371804852224.00000
0.92709 0.35025 -0.33008 -280842331688284805085546313867944001536.00000
0.90355 0.39948 -0.32172 -270166807087860370267924221837057196032.00000
0.91322 0.40256 -0.29614 -267492774205714934039231016227508846592.00000
0.89545 0.45809 -0.32336 -275509822532159933459375070190583676928.00000
0.90420 0.46104 -0.29721 -270182404260845578402480237273296142336.00000
0.86428 0.49905 -0.31147 -259517446795824646105149021760329351168.00000
0.89865 0.49001 -0.29745 -266179183947734433604224072497970020352.00000
1.06183 -0.37669 -0.33309 -271480437910660078006272013461098594304.00000
1.08227 -0.31237 -0.33847 -274149298778356583059007112521569009664.00000
1.11663 -0.28644 -0.31471 -259496596478752092187953203986007326720.00000
1.06896 -0.23610 -0.32827 -275483719071000033759539450078178574336.00000
1.09876 -0.20793 -0.30381 -258162054491651019577398322745890045952.00000
1.07478 -0.16822 -0.32830 -279497344260237851864723099793414422528.00000
1.10046 -0.13760 -0.30238 -266137523878408533073173284843828543488.00000
