# .PCD v0.7 - Point Cloud Data file format
VERSION 0.7
FIELDS x y z rgb
SIZE 4 4 4 4
TYPE F F F F
COUNT 1 1 1 1
WIDTH 659
HEIGHT 1
VIEWPOINT 0 0 0 1 0 0 0
POINTS 659
DATA ascii
0.36885 -0.00717 -0.30701 -291554182084309380044897695425884061696.00000
0.37462 -0.01548 -0.30897 -296891944384521597453708741441327464448.00000
0.36811 0.00055 -0.30347 -292888622659362434397100456929744912384.00000
0.37342 0.00807 -0.30289 -295557503809468543101505979937466613760.00000
0.36837 0.02327 -0.30475 -298205636054550116147067804907122720768.00000
0.37352 0.01579 -0.30332 -296892005231750408408720013283081322496.00000
0.36817 0.03085 -0.30461 -292867833189518691434915910997176745984.00000
0.37289 0.03890 -0.30285 -290219761791665929344365357869274497024.00000
0.36672 0.05333 -0.30249 -299550400376091429199516355561888153600.00000
0.37238 0.04653 -0.30212 -290224933806114860520323464418352431104.00000
0.36508 0.06795 -0.29971 -294202253482162142135448248553786310656.00000
0.37092 0.06158 -0.29980 -296881539508394924146781256501417738240.00000
0.36292 0.08212 -0.29590 -290198931757002979078839964042203758592.00000
0.36891 0.07621 -0.29639 -294212658358288815442375733493696036864.00000
0.36029 0.09573 -0.29113 -291533392614465637082713149493315895296.00000
0.36637 0.09032 -0.29196 -291543756925773103086299786538723049472.00000
0.36337 0.10378 -0.28658 -292878197500826157438502548042583900160.00000
0.37212 -0.09927 -0.28571 -288864470899540321074966778591091621888.00000
0.36721 -0.08865 -0.28332 -291543756925773103086299786538723049472.00000
0.37184 -0.09018 -0.28095 -296871114349858647188183347614256726016.00000
0.36867 -0.07348 -0.28216 -291538584911324171910341679989645115392.00000
0.37520 -0.06810 -0.28358 -292862620610250552955616956553596239872.00000
0.37078 -0.05912 -0.28451 -292878197500826157438502548042583900160.00000
0.37222 -0.05218 -0.28747 -294212617793469608139034885599193464832.00000
0.37983 -0.04675 -0.29278 -299545147232004083416876553223805075456.00000
0.38109 -0.03928 -0.29532 -299555592672949964027144886058217373696.00000
0.37823 -0.03147 -0.30386 -294223063234415488749303218433605763072.00000
0.38449 -0.02436 -0.30413 -292888622659362434397100456929744912384.00000
0.37920 -0.00779 -0.30420 -292888622659362434397100456929744912384.00000
0.38529 -0.01640 -0.30582 -292888622659362434397100456929744912384.00000
0.37837 0.00021 -0.30074 -292888622659362434397100456929744912384.00000
0.38398 0.00800 -0.29994 -287550860359150216988289410914301509632.00000
0.37868 0.02375 -0.30205 -279554642067368167833670750778297417728.00000
0.38409 0.01600 -0.30039 -260872474016625406902832089724245508096.00000
0.37846 0.03160 -0.30188 -295567908685595216408433464877376339968.00000
0.38470 0.04033 -0.30431 -298236749270882117809498139990595469312.00000
0.37684 0.05488 -0.29959 -288895665245510737344078809463569514496.00000
0.38412 0.04833 -0.30350 -300900417841720088034604708554736664576.00000
0.37500 0.06998 -0.29663 -295547078650932266142908071050305601536.00000
0.38120 0.06342 -0.29657 -294223022669596281445962370539103191040.00000
0.37375 0.08552 -0.29691 -288880088354935132861193217974581854208.00000
0.38018 0.07938 -0.29728 -290224893241295653216982616523849859072.00000
0.36966 0.09858 -0.28751 -290219741509256325692694933922023211008.00000
0.37611 0.09304 -0.28823 -290224893241295653216982616523849859072.00000
0.36626 0.11184 -0.28153 -290219802356485136647706205763777069056.00000
0.37276 0.10685 -0.28254 -295562716388736681580804934381047119872.00000
0.37684 -0.10091 -0.28303 -290198891192183771775499116147701186560.00000
0.37656 -0.09172 -0.27844 -296860709473731973881255862674346999808.00000
0.38368 -0.08673 -0.28003 -296871073785039439884842499719754153984.00000
0.38144 -0.07043 -0.28577 -299534701791058202806608220389392777216.00000
0.38654 -0.07176 -0.28341 -298210666092131821761332943825441652736.00000
0.38355 -0.05515 -0.28794 -302203603223573915162684167344365764608.00000
0.38878 -0.05627 -0.28577 -303548408109934435518473565893633769472.00000
0.38504 -0.04773 -0.29082 -300874354945379395638109936336834134016.00000
0.39178 -0.04103 -0.29139 -303564086412558058259711277118877859840.00000
0.38997 -0.02497 -0.30231 -294223063234415488749303218433605763072.00000
0.39600 -0.03430 -0.30288 -300905670985807433817244510892819742720.00000
0.39007 -0.00844 -0.30089 -292888622659362434397100456929744912384.00000
0.39649 -0.01736 -0.30213 -294233468110542162056230703373515489280.00000
0.38946 0.00797 -0.29828 -304898587834839923566925310464492568576.00000
0.39622 -0.00047 -0.30015 -300905670985807433817244510892819742720.00000
0.39091 0.02444 -0.30332 -302229706684733814862519787456770867200.00000
0.39667 0.01630 -0.30138 -306243291309152425664362589277504143360.00000
0.39163 0.04128 -0.30715 -302234858416773142386807470058597515264.00000
0.39783 0.03339 -0.30582 -308886190692556256578955035856328458240.00000
0.39101 0.04953 -0.30629 -303569258427006989435669383667955793920.00000
0.38882 0.05709 -0.30060 -300900377276900880731263860660234092544.00000
0.38673 0.07289 -0.29738 -287556012091189544512577093516128157696.00000
0.39219 0.07401 -0.29534 -288895665245510737344078809463569514496.00000
0.38400 0.08814 -0.29301 -288895665245510737344078809463569514496.00000
0.39082 0.08183 -0.29323 -291564546395616846048484332471291215872.00000
0.38114 0.09445 -0.28617 -286226784095404628639673286455847813120.00000
0.38578 0.10423 -0.28524 -291564546395616846048484332471291215872.00000
0.37760 0.10844 -0.28031 -287571649828993959950473956846869676032.00000
0.37564 0.11512 -0.27704 -287566437249725821471175002403289169920.00000
0.37829 0.12332 -0.27100 -292888622659362434397100456929744912384.00000
0.38652 -0.10427 -0.27719 -300884719256686861641696573382241288192.00000
0.39486 -0.11932 -0.28771 -295567746426318387195070073299366051840.00000
0.38768 -0.09630 -0.27734 -299534681508648599154937796442141491200.00000
0.39425 -0.09942 -0.27878 -300874273815740981031428240547828989952.00000
0.39321 -0.07422 -0.28532 -299550298964043410941164235825631723520.00000
0.39943 -0.08538 -0.28766 -294212536663831193532353189810188320768.00000
0.39526 -0.06682 -0.28896 -299550258399224203637823387931129151488.00000
0.40439 -0.06132 -0.29437 -296886569545976629761046395419736670208.00000
0.39884 -0.04261 -0.29365 -302219180114149519645569758833353424896.00000
0.40457 -0.05242 -0.29294 -300889891271135792817654679931319222272.00000
0.40176 -0.03509 -0.30070 -300900397559310484382934284607485378560.00000
0.40888 -0.02740 -0.30056 -302219200396559123297240182780604710912.00000
0.40148 -0.00912 -0.29702 -304903719284469647439542569119067930624.00000
0.40823 -0.01838 -0.29783 -300884759821506068945037421276743860224.00000
0.40203 -0.00066 -0.29816 -302234858416773142386807470058597515264.00000
0.40834 0.00782 -0.29682 -312899917293842092942490805307820736512.00000
0.40562 0.02537 -0.30870 -308896555003863722582541672901735612416.00000
0.41014 0.01662 -0.30179 -310230995578916776934744434405596463104.00000
0.41144 0.03459 -0.30624 -308875745251610375968686703021916160000.00000
0.41263 0.04391 -0.31033 -310215398405931568800188418969357516800.00000
0.40482 0.06073 -0.31032 -302234838134363538735137046111346229248.00000
0.41187 0.05283 -0.30933 -310230995578916776934744434405596463104.00000
0.40054 0.06777 -0.29946 -298236728988472514157827716043344183296.00000
0.39926 0.07598 -0.29756 -295562614976688663322452814644790689792.00000
0.39615 0.09189 -0.29284 -295562614976688663322452814644790689792.00000
0.40348 0.08533 -0.29290 -298226242982707426244218535314429313024.00000
0.39435 0.09956 -0.29006 -291559293251529500265844530133208137728.00000
0.39984 0.10109 -0.28745 -295552149253333179060514057863127105536.00000
0.39028 0.11425 -0.28369 -290214488365168979910055131583940132864.00000
0.39317 0.12303 -0.27727 -280847382008276114351481876733514219520.00000
0.38436 0.12652 -0.27227 -287535242903755405202062971530811277312.00000
0.38805 0.13637 -0.26933 -299539995499964755892588870621978427392.00000
0.40384 -0.13594 -0.29891 -296886569545976629761046395419736670208.00000
0.40177 -0.12311 -0.28900 -296886569545976629761046395419736670208.00000
0.40862 -0.11638 -0.28563 -292883268103227070356108534855405404160.00000
0.40224 -0.09417 -0.28018 -296860648626503162926244590832593141760.00000
0.40642 -0.10438 -0.27658 -296871073785039439884842499719754153984.00000
0.41098 -0.08190 -0.29832 -287555930961551129905895397727123013632.00000
0.41604 -0.09270 -0.29559 -291528139470378291300073347155232817152.00000
0.41339 -0.07388 -0.30232 -290229984126106169786259027283922649088.00000
0.42378 -0.06799 -0.30797 -298241860438102238030444974697919545344.00000
0.41214 -0.05437 -0.29488 -302234696157496313173444078480587227136.00000
0.42003 -0.04697 -0.29503 -307572519304937341537266396337784487936.00000
0.41323 -0.02759 -0.29353 -310215357841112361496847571074854944768.00000
0.41981 -0.03759 -0.29310 -307551689270274391271741002510713749504.00000
0.41431 -0.01890 -0.29543 -306212036115953198440239286563272392704.00000
0.42144 -0.01047 -0.29443 -306217248695221336919538241006852898816.00000
0.41446 0.00778 -0.29452 -312889471852896212332222472473408438272.00000
0.42210 -0.00141 -0.29564 -312868641818233262066697078646337699840.00000
0.41626 0.02575 -0.29956 -307541304676557321616483941518055309312.00000
0.42268 0.01687 -0.29695 -308870552954751841141058172525586939904.00000
0.42226 0.03519 -0.29675 -312863429238965123587398124202757193728.00000
0.42539 0.04518 -0.30527 -314218659283861920901785431639186210816.00000
0.41532 0.06192 -0.30083 -304893172431475748570922116548399202304.00000
0.42454 0.05443 -0.30420 -311554990713023950676678863075045015552.00000
0.42026 0.07176 -0.29639 -304872423526451212912078418510333607936.00000
0.41872 0.08048 -0.29427 -306217268977630940571208664954104184832.00000
0.40929 0.08666 -0.29026 -299555470978492342117122342374709657600.00000
0.40745 0.09476 -0.28761 -296886589828386233412716819366987956224.00000
0.40481 0.11158 -0.28573 -296886589828386233412716819366987956224.00000
0.41046 0.11329 -0.28263 -296886589828386233412716819366987956224.00000
0.40243 0.11908 -0.28219 -296871073785039439884842499719754153984.00000
0.40687 0.12969 -0.27936 -295562655541507870625793662539293261824.00000
0.39589 0.14159 -0.27432 -294223063234415488749303218433605763072.00000
0.40401 0.13679 -0.27519 -295562655541507870625793662539293261824.00000
0.42235 -0.15607 -0.29538 -298231455561975564723517489758009819136.00000
0.41849 -0.13326 -0.29634 -298221010121029684113249156923597520896.00000
0.42814 -0.12812 -0.29776 -298221030403439287764919580870848806912.00000
0.41753 -0.11116 -0.28701 -295536633209986385532639738215893303296.00000
0.42534 -0.11481 -0.28785 -298205514360092494237045261223615004672.00000
0.42909 -0.08914 -0.30669 -298226324112345840850900231103434457088.00000
0.43921 -0.10414 -0.31419 -296891944384521597453708741441327464448.00000
0.43414 -0.08188 -0.31639 -296897055551741717674655576148651540480.00000
0.44598 -0.07554 -0.32228 -299565896137028619075720251261870669824.00000
0.43245 -0.06042 -0.30823 -302239949301583658956083880818670305280.00000
0.43686 -0.05065 -0.29817 -303548367545115228215132717999131197440.00000
0.42757 -0.02949 -0.29256 -306227673853757613878136149894013911040.00000
0.43453 -0.03999 -0.29160 -308886190692556256578955035856328458240.00000
0.42978 -0.01113 -0.29619 -308886129845327445623943764014574600192.00000
0.43744 -0.02135 -0.29611 -296897055551741717674655576148651540480.00000
0.43094 0.00764 -0.29830 -311523776084643930755896408255315836928.00000
0.43973 0.00756 -0.29995 -304877656388128955043047796901165400064.00000
0.43111 0.01709 -0.29877 -311534201243180207714494317142476849152.00000
0.43773 0.02687 -0.29588 -308886150127737049275614187961825886208.00000
0.43066 0.03600 -0.29853 -316877155840250959950933893654249472000.00000
0.43873 0.04652 -0.29939 -307556901849542529751039956954294255616.00000
0.42798 0.06385 -0.29529 -304882828402577886219005903450243334144.00000
0.43777 0.05610 -0.29825 -304888040981846024698304857893823840256.00000
0.42658 0.07289 -0.29346 -306212076680772405743580134457774964736.00000
0.43303 0.07404 -0.29032 -304893233278704559525933388390153060352.00000
0.42098 0.09887 -0.28592 -294222921257548263187610250802846760960.00000
0.42931 0.09185 -0.28550 -298226242982707426244218535314429313024.00000
0.41869 0.10707 -0.28277 -295562574411869456019111966750288117760.00000
0.42847 0.11133 -0.28809 -294233346416084540146208159690007773184.00000
0.41773 0.13651 -0.28911 -295562614976688663322452814644790689792.00000
0.43077 0.13403 -0.29902 -294228133836816401666909205246427267072.00000
0.41458 0.14394 -0.28465 -295562635259098266974123238592041975808.00000
0.42248 0.15914 -0.28967 -296897055551741717674655576148651540480.00000
0.41495 0.16196 -0.27526 -295562655541507870625793662539293261824.00000
0.44137 -0.18195 -0.30664 -302208694108384431731960578104438554624.00000
0.43277 -0.16380 -0.30156 -296881316401889283978406593081653592064.00000
0.44117 -0.16900 -0.30180 -300884678691867654338355725487738716160.00000
0.44147 -0.13688 -0.30973 -292878136653597346483491276200830042112.00000
0.44774 -0.13902 -0.30458 -287540394635794732726350654132637925376.00000
0.44455 -0.11638 -0.31006 -296886711522843855322739363050495672320.00000
0.44953 -0.12875 -0.30506 -295547017803703455187896799208551743488.00000
0.45782 -0.11156 -0.31648 -296886731805253458974409786997746958336.00000
0.46164 -0.10233 -0.32174 -296881478661166113191769984659663880192.00000
0.45521 -0.08943 -0.32530 -296907460427868390981583061088561266688.00000
0.46236 -0.09112 -0.32081 -304888122111484439304986553682828984320.00000
0.45571 -0.06729 -0.32220 -307546476691006252792442048067133243392.00000
0.46558 -0.05847 -0.32163 -304877656388128955043047796901165400064.00000
0.45693 -0.03511 -0.32051 -298215939518628771195643170110776016896.00000
0.46707 -0.03661 -0.32205 -298215939518628771195643170110776016896.00000
0.45590 -0.02421 -0.31741 -298226364677165048154241078997937029120.00000
0.46457 -0.01424 -0.31546 -299565997549076637334072370998127099904.00000
0.45067 -0.00273 -0.30532 -299555592672949964027144886058217373696.00000
0.45846 0.00740 -0.30267 -298226324112345840850900231103434457088.00000
0.44909 0.01756 -0.30188 -299565936701847826379061099156373241856.00000
0.45616 0.02799 -0.29842 -295578212149673871457008830081029636096.00000
0.44855 0.03771 -0.30156 -295562614976688663322452814644790689792.00000
0.45970 0.04946 -0.30678 -295567827555956801801751769088371195904.00000
0.45132 0.05889 -0.30919 -300884759821506068945037421276743860224.00000
0.45954 0.07083 -0.30871 -288885199522155253082140052681905930240.00000
0.44168 0.07606 -0.29140 -300889911553545396469325103878570508288.00000
0.45564 0.09091 -0.30398 -292888622659362434397100456929744912384.00000
0.43735 0.10442 -0.28776 -291569657562836966269431167178615291904.00000
0.44861 0.09818 -0.29156 -294223083516825092400973642380857049088.00000
0.44722 0.13269 -0.31445 -290235216987783911917228405674754441216.00000
0.45737 0.12544 -0.31420 -287555971526370337209236245621625585664.00000
0.44022 0.14996 -0.30521 -292893693261763347314706443742566416384.00000
0.45417 0.15860 -0.31655 -290224852676476445913641768629347287040.00000
0.43644 0.15803 -0.30018 -294228174401635608970250053140929839104.00000
0.44563 0.17514 -0.30550 -304872464091270420215419266404836179968.00000
0.42630 0.18232 -0.28862 -302213987817290984817941228337024204800.00000
0.43648 0.18991 -0.29355 -299539934652735944937577598780224569344.00000
0.44715 -0.18426 -0.30033 -296876164669849956454118910479826944000.00000
0.45241 -0.16429 -0.30303 -299545086384775272461865281382051217408.00000
0.45855 -0.16658 -0.29684 -296876225517078767409130182321580802048.00000
0.45982 -0.14617 -0.31081 -299550339528862618244505083720134295552.00000
0.46640 -0.14842 -0.30492 -295546997521293851536226375261300457472.00000
0.46048 -0.12240 -0.30578 -295562574411869456019111966750288117760.00000
0.46544 -0.13522 -0.29986 -291548847810583619655576197298795839488.00000
0.46476 -0.11351 -0.31145 -296891883537292786498697469599573606400.00000
0.47605 -0.10606 -0.31158 -299550319246453014592834659772883009536.00000
0.47307 -0.08285 -0.32063 -304882868967397093522346751344745906176.00000
0.48005 -0.09621 -0.31668 -299550319246453014592834659772883009536.00000
0.47605 -0.06076 -0.32284 -303538023516217365863216504900975329280.00000
0.48396 -0.07397 -0.31993 -304882828402577886219005903450243334144.00000
0.47765 -0.03818 -0.32335 -299545167514413687068546977171056361472.00000
0.48644 -0.05106 -0.32146 -306217309542450147874549512848606756864.00000
0.47647 -0.02654 -0.32019 -303548489239572850125155261682638913536.00000
0.48887 -0.01629 -0.32315 -306217309542450147874549512848606756864.00000
0.47047 -0.00358 -0.30773 -296876286364307578364141454163334660096.00000
0.48163 0.00719 -0.30952 -304877636105719351391377372953914114048.00000
0.46610 0.01796 -0.29932 -303548367545115228215132717999131197440.00000
0.47618 0.02919 -0.30002 -303553580124383366694431672442711703552.00000
0.47240 0.05133 -0.31286 -296902268131009856153954530592232046592.00000
0.48114 0.04096 -0.30950 -296897014986922510371314728254148968448.00000
0.47387 0.06290 -0.31667 -296886650675615044367728091208741814272.00000
0.48284 0.07582 -0.31557 -298210706656951029064673791719944224768.00000
0.47026 0.08432 -0.31251 -280878657483884945227275603394997256192.00000
0.48072 0.08677 -0.31317 -294212638075879211790705309546444750848.00000
0.47050 0.11924 -0.31892 -291554141519490172741556847531381489664.00000
0.48119 0.11075 -0.31773 -290204144336271117558138918485784264704.00000
0.46911 0.14254 -0.32147 -294207384931791866008065507208361672704.00000
0.47639 0.14472 -0.31616 -290204063206632702951457222696779120640.00000
0.46797 0.15412 -0.32225 -295536633209986385532639738215893303296.00000
0.47513 0.15642 -0.31675 -290209275785900841430756177140359626752.00000
0.45921 0.17189 -0.31135 -296860668908912766577915014779844427776.00000
0.46378 0.18522 -0.30519 -280857827449221994961750209567926517760.00000
0.44731 0.19797 -0.29851 -294191808041216261525179915719374012416.00000
0.45862 0.19308 -0.29891 -288869683478808459554265733034672128000.00000
0.45609 0.21692 -0.30230 -292857387748572810824647578162764447744.00000
0.45541 -0.19847 -0.28483 -299555450696082738465451918427458371584.00000
0.47109 -0.19832 -0.29170 -300879486395009119510727194991409496064.00000
0.46179 -0.17895 -0.28870 -302213926970062173862929956495270346752.00000
0.47412 -0.17422 -0.28934 -299545066102365668810194857434799931392.00000
0.47626 -0.15336 -0.30464 -300884638127048447035014877593236144128.00000
0.48038 -0.16664 -0.29679 -296876184952259560105789334427078230016.00000
0.48884 -0.14704 -0.30492 -304882808120168282567335479502992048128.00000
0.49091 -0.13543 -0.30552 -304882808120168282567335479502992048128.00000
0.48661 -0.10984 -0.31176 -302219200396559123297240182780604710912.00000
0.49413 -0.11178 -0.30581 -300889891271135792817654679931319222272.00000
0.49866 -0.10154 -0.31115 -300889891271135792817654679931319222272.00000
0.50287 -0.09083 -0.31611 -296886589828386233412716819366987956224.00000
0.49833 -0.06561 -0.32443 -304877595540900144088036525059411542016.00000
0.50672 -0.07970 -0.32066 -294217708678280124708311296359266254848.00000
0.50020 -0.04151 -0.32513 -304872423526451212912078418510333607936.00000
0.50864 -0.04246 -0.31976 -304872423526451212912078418510333607936.00000
0.50219 -0.02965 -0.32765 -302203542376345104207672895502611906560.00000
0.51076 -0.03039 -0.32232 -303548387827524831866803141946382483456.00000
0.49825 -0.00494 -0.31983 -306206864101504267264281180014194458624.00000
0.51012 -0.00545 -0.32023 -296886589828386233412716819366987956224.00000
0.49290 0.01874 -0.31055 -303527537510452277949607324172060459008.00000
0.50769 0.01917 -0.31616 -291538463216866550000319136306137399296.00000
0.49727 0.05479 -0.31962 -299550319246453014592834659772883009536.00000
0.51018 0.04406 -0.32103 -300884678691867654338355725487738716160.00000
0.49578 0.06649 -0.31807 -304882868967397093522346751344745906176.00000
0.50538 0.08029 -0.31617 -298195089201556217278447352336453992448.00000
0.49520 0.10303 -0.32151 -299534823485515824716630764072900493312.00000
0.50626 0.09316 -0.31908 -296860648626503162926244590832593141760.00000
0.49207 0.11405 -0.31801 -295531481477947058008352055614066655232.00000
0.49964 0.12845 -0.31389 -290193638048096425992859313809618108416.00000
0.48687 0.14902 -0.31613 -288890472948652202516450278967240294400.00000
0.49441 0.15127 -0.31008 -294217688395870521056640872412014968832.00000
0.48236 0.15873 -0.31095 -291559354098758311220855801974961995776.00000
0.48781 0.17287 -0.30471 -290198911474593375427169540094952472576.00000
0.47561 0.17933 -0.30514 -288859258320272182595667824147511115776.00000
0.48247 0.18179 -0.29872 -283526708599328103666155732575648219136.00000
0.46507 0.20909 -0.29690 -292846881460398119259367973486598291456.00000
0.47733 0.20407 -0.29689 -292862498915792931045594412870088523776.00000
0.46511 0.22293 -0.30128 -291517653464613203386464166426317946880.00000
0.49279 -0.23293 -0.31552 -299545045819956065158524433487548645376.00000
0.50349 -0.24039 -0.31386 -299545066102365668810194857434799931392.00000
0.48053 -0.19032 -0.28607 -288869602349170044947584037245666983936.00000
0.51462 -0.20440 -0.31912 -291538483499276153651989560253388685312.00000
0.49337 -0.16079 -0.29697 -299545106667184876113535705329302503424.00000
0.52076 -0.17922 -0.32152 -296871073785039439884842499719754153984.00000
0.50950 -0.14527 -0.31716 -298210666092131821761332943825441652736.00000
0.52134 -0.15035 -0.31618 -296871073785039439884842499719754153984.00000
0.50747 -0.13029 -0.31115 -295541703812387298450245725028714807296.00000
0.52913 -0.12656 -0.32277 -299539833240687926679225479043968139264.00000
0.51851 -0.09590 -0.32187 -300879506677418723162397618938660782080.00000
0.52692 -0.09769 -0.31515 -299534661226238995503267372494890205184.00000
0.51879 -0.08273 -0.32050 -296876184952259560105789334427078230016.00000
0.53124 -0.07226 -0.31823 -302203582941164311511013743397114478592.00000
0.52191 -0.05749 -0.32243 -303538003233807762211546080953724043264.00000
0.53069 -0.05870 -0.31609 -303532871784178038338928822299148681216.00000
0.52315 -0.03177 -0.32237 -302213947252471777514600380442521632768.00000
0.53209 -0.03254 -0.31621 -294202172352523727528766552764781166592.00000
0.52324 0.00680 -0.32128 -294217708678280124708311296359266254848.00000
0.53533 -0.00653 -0.31993 -302219200396559123297240182780604710912.00000
0.52326 0.03245 -0.32166 -302224331846188847169857441435180072960.00000
0.54044 0.02011 -0.32728 -295546956956474644232885527366797885440.00000
0.52497 0.05861 -0.32559 -300884678691867654338355725487738716160.00000
0.53933 0.04700 -0.32648 -302219098984511105038888063044348280832.00000
0.52470 0.08490 -0.32742 -299534681508648599154937796442141491200.00000
0.53363 0.08626 -0.32107 -291538503781685757303659984200639971328.00000
0.51875 0.10933 -0.32131 -292867670930241862221552519419166457856.00000
0.53072 0.09884 -0.31820 -287529969477258455767752745245476913152.00000
0.51111 0.13231 -0.31332 -291538422652047342696978288411634827264.00000
0.52350 0.12293 -0.31100 -284861108609561950715017646185006497792.00000
0.50547 0.15577 -0.30927 -291538402369637739045307864464383541248.00000
0.51323 0.15807 -0.30240 -291522805196652530910751849028144594944.00000
0.50036 0.16580 -0.30381 -290198850627364564472158268253198614528.00000
0.50784 0.16818 -0.29687 -286185144308488331760292922748957622272.00000
0.49004 0.19853 -0.29652 -288869642913989252250924885140169555968.00000
0.49684 0.20108 -0.28912 -286205954060741678374147892628777074688.00000
0.48400 0.22088 -0.29391 -288890412101423391561439007125486436352.00000
0.49373 0.21239 -0.28774 -287550779229511802381607715125296365568.00000
0.48061 0.23169 -0.29224 -284887090376264228504830722613903884288.00000
0.48645 0.24882 -0.28800 -284866422600878107452668720364843433984.00000
0.54440 -0.29468 -0.34136 -296881275837070076675065745187151020032.00000
0.52480 -0.25938 -0.32773 -296881336684298887630077017028904878080.00000
0.55327 -0.26690 -0.34468 -296881275837070076675065745187151020032.00000
0.53285 -0.23356 -0.33116 -296876184952259560105789334427078230016.00000
0.54943 -0.22784 -0.33060 -294207283519743847749713387472105242624.00000
0.53987 -0.20678 -0.33376 -292872863227100397049181049915495677952.00000
0.55629 -0.19983 -0.33292 -296876164669849956454118910479826944000.00000
0.55085 -0.18282 -0.34295 -294207283519743847749713387472105242624.00000
0.56478 -0.18938 -0.34140 -294207283519743847749713387472105242624.00000
0.55504 -0.15372 -0.34296 -303548286415476813608451022210126053376.00000
0.58081 -0.16612 -0.35734 -300874253533331377379757816600577703936.00000
0.54784 -0.11943 -0.32771 -306211995551133991136898438668769820672.00000
0.57263 -0.11340 -0.33902 -310215357841112361496847571074854944768.00000
0.54430 -0.07507 -0.31729 -299534701791058202806608220389392777216.00000
0.55332 -0.07654 -0.30986 -296865780076132886798861849487168503808.00000
0.54686 -0.04803 -0.31849 -303532871784178038338928822299148681216.00000
0.55724 -0.06348 -0.31380 -296860608061683955622903742938090569728.00000
0.54725 -0.02065 -0.31755 -302208836085251657293653545735197556736.00000
0.55888 -0.03552 -0.31406 -294202131787704520225425704870278594560.00000
0.55387 0.00652 -0.32615 -298221131815487306023271700607105236992.00000
0.56718 -0.00798 -0.32395 -300874334662969791986439512389582848000.00000
0.55384 0.03441 -0.32647 -296881458378756509540099560712412594176.00000
0.56841 0.02083 -0.32546 -295526228333859712225712253275983577088.00000
0.55582 0.06286 -0.33050 -292867752059880276828234215208171601920.00000
0.56549 0.06382 -0.32316 -284892343520351574287470524951986962432.00000
0.54940 0.07557 -0.32255 -298200362628053166712757578621788356608.00000
0.54679 0.08886 -0.32011 -286195630314253419673902103477872492544.00000
0.54001 0.11445 -0.31365 -282202693182811326272550879958948380672.00000
0.55272 0.10344 -0.30979 -294202212917342934832107400659283738624.00000
0.53533 0.14044 -0.31097 -291543777208182706737970210485974335488.00000
0.54873 0.13050 -0.30790 -294202192634933331180436976712032452608.00000
0.53287 0.16778 -0.31231 -294191787758806657873509491772122726400.00000
0.55605 0.16391 -0.32223 -290198850627364564472158268253198614528.00000
0.52689 0.17844 -0.30641 -287529989759668059419423169192728199168.00000
0.54339 0.18673 -0.31025 -287530030324487266722764017087230771200.00000
0.51405 0.19795 -0.29363 -278214928065818164047157762989102202880.00000
0.53812 0.21382 -0.30914 -282213098058937999579478364898858106880.00000
0.50033 0.22961 -0.28355 -280878718331113756182286875236751114240.00000
0.52693 0.23585 -0.30034 -280878677766294548878946027342248542208.00000
0.50005 0.26000 -0.29133 -280863080593309340744390011906009595904.00000
0.51458 0.27196 -0.29457 -279533791750295613916474933003975393280.00000
0.57875 -0.32334 -0.34559 -300884556997410032428333181804231000064.00000
0.56242 -0.29051 -0.34058 -299550136704766581727800844247621435392.00000
0.58127 -0.28569 -0.33930 -298210605244903010806321671983687794688.00000
0.57136 -0.26148 -0.34378 -299544903843088839596831465856789643264.00000
0.58330 -0.24941 -0.33352 -296886528981157422457705547525234098176.00000
0.57620 -0.21137 -0.33865 -300879486395009119510727194991409496064.00000
0.58452 -0.21413 -0.32782 -300884638127048447035014877593236144128.00000
0.58803 -0.18468 -0.34768 -303548408109934435518473565893633769472.00000
0.59426 -0.20325 -0.33669 -304882767555349075263994631608489476096.00000
0.60442 -0.15921 -0.36323 -302203542376345104207672895502611906560.00000
0.61431 -0.16175 -0.35274 -302203542376345104207672895502611906560.00000
0.59898 -0.13925 -0.35380 -304877595540900144088036525059411542016.00000
0.61593 -0.12736 -0.35014 -302208694108384431731960578104438554624.00000
0.59351 -0.10382 -0.34282 -303543154965847089735833763555550691328.00000
0.61520 -0.09292 -0.34574 -300874212968512170076416968706075131904.00000
0.57010 -0.05110 -0.30938 -303522406060822554076990065517485096960.00000
0.58970 -0.05426 -0.31303 -300879547242237930465738466833163354112.00000
0.58527 -0.02390 -0.32686 -302188026332998310679798575855378104320.00000
0.59290 -0.03953 -0.31599 -300869264060568879068833525576761344000.00000
0.58191 -0.00861 -0.32228 -303522406060822554076990065517485096960.00000
0.59304 0.00620 -0.31498 -299550217834404996334482540036626579456.00000
0.57797 0.03572 -0.31754 -298210666092131821761332943825441652736.00000
0.59337 0.02141 -0.31542 -299545066102365668810194857434799931392.00000
0.57693 0.05034 -0.31675 -296876225517078767409130182321580802048.00000
0.59000 0.06668 -0.31295 -303537982951398158559875657006472757248.00000
0.57288 0.07903 -0.31336 -296886650675615044367728091208741814272.00000
0.57940 0.09442 -0.30245 -299539833240687926679225479043968139264.00000
0.56220 0.11977 -0.30403 -294207344366972658704724659313859100672.00000
0.57563 0.10823 -0.29930 -298205392665634872327022717540107288576.00000
0.57088 0.15387 -0.31899 -291533230355188807869349757915305607168.00000
0.59662 0.14766 -0.32792 -295536511515528763622617194532385587200.00000
0.58421 0.19374 -0.34124 -288869703761218063205936156981923414016.00000
0.61332 0.19017 -0.35283 -288874814928438183426882991689247490048.00000
0.57421 0.22124 -0.33432 -284866382036058900149327872470340861952.00000
0.60100 0.23699 -0.34672 -282213098058937999579478364898858106880.00000
0.56581 0.23210 -0.32660 -284866382036058900149327872470340861952.00000
0.57036 0.24951 -0.31517 -280883809215924272751563285996823904256.00000
0.54933 0.26965 -0.31576 -280878657483884945227275603394997256192.00000
0.56201 0.27768 -0.31211 -280883809215924272751563285996823904256.00000
0.54031 0.29594 -0.31197 -280873444904616806747976648951416750080.00000
0.54686 0.29857 -0.30072 -278209776333778836522870080387275554816.00000
0.53636 0.30501 -0.29117 -276875335758725782170667318883414704128.00000
0.61502 -0.38153 -0.37478 -295546794697197815019522135788787597312.00000
0.62755 -0.36660 -0.36019 -298215675847303923723927658796509298688.00000
0.60722 -0.32769 -0.35426 -298215696129713527375598082743760584704.00000
0.62878 -0.32254 -0.35182 -299545005255136857855183585593046073344.00000
0.60095 -0.28014 -0.33746 -296876184952259560105789334427078230016.00000
0.62144 -0.27376 -0.33494 -296886528981157422457705547525234098176.00000
0.60244 -0.24256 -0.33146 -298215756976942338330609354585514442752.00000
0.62224 -0.23481 -0.32865 -296881316401889283978406593081653592064.00000
0.60982 -0.21058 -0.33345 -302219078702101501387217639097096994816.00000
0.62916 -0.20128 -0.33015 -302208673825974828080290154157187268608.00000
0.63130 -0.16790 -0.34992 -299539833240687926679225479043968139264.00000
0.63930 -0.18825 -0.33850 -300874233250921773728087392653326417920.00000
0.64019 -0.13518 -0.35553 -303532851501768434687258398351897395200.00000
0.65080 -0.13742 -0.34398 -298210686374541425413003367772692938752.00000
0.63911 -0.09870 -0.35076 -300863929786843118679512027449673121792.00000
0.64999 -0.10047 -0.33968 -295546977238884247884555951314049171456.00000
0.63759 -0.08060 -0.34765 -306191246646109455478054740630704226304.00000
0.65568 -0.08390 -0.34436 -300874314380560188334769088442331561984.00000
0.63535 -0.02833 -0.34246 -295546956956474644232885527366797885440.00000
0.65729 -0.04808 -0.34404 -302213947252471777514600380442521632768.00000
0.61882 -0.01028 -0.32364 -294217708678280124708311296359266254848.00000
0.63067 0.00586 -0.31483 -302213947252471777514600380442521632768.00000
0.60850 0.03754 -0.31232 -298210645809722218109662519878190366720.00000
0.62507 0.02222 -0.30899 -299545045819956065158524433487548645376.00000
0.60728 0.05318 -0.31145 -296876184952259560105789334427078230016.00000
0.62326 0.05467 -0.30785 -303548387827524831866803141946382483456.00000
0.59732 0.08264 -0.30193 -294207303802153451401383811419356528640.00000
0.61819 0.08636 -0.30411 -300879486395009119510727194991409496064.00000
0.61215 0.13546 -0.32277 -296876184952259560105789334427078230016.00000
0.62152 0.12035 -0.31013 -294202070940475709270414433028524736512.00000
0.62424 0.17531 -0.34061 -288874835210847787078553415636498776064.00000
0.63483 0.16000 -0.32784 -280862938616442115182697044275250593792.00000
0.63567 0.21855 -0.35905 -283547558916400657583351550349970243584.00000
0.64570 0.22149 -0.34687 -243498724209414215231042265850654490624.00000
0.63601 0.23507 -0.33916 -266184193702906535566818787469037666304.00000
0.62587 0.24771 -0.33106 -283537113475454776973083217515557945344.00000
0.60019 0.25147 -0.32702 -282207885479669861100179410455277600768.00000
0.60453 0.27014 -0.31390 -283531880613777034842113839124726153216.00000
0.58582 0.27704 -0.31706 -275530388895498036253184952703387697152.00000
0.59348 0.27991 -0.30493 -282202591770763308014198760222691950592.00000
0.57010 0.29988 -0.30585 -280868191760529460965336846613333671936.00000
0.57765 0.32260 -0.29857 -283526708599328103666155732575648219136.00000
0.55342 0.31994 -0.29369 -282202672900401722620880456011697094656.00000
0.55338 0.33453 -0.27839 -280863040028490133441049164011507023872.00000
0.66198 -0.42407 -0.38047 -295546814979607418671192559736038883328.00000
0.68755 -0.42009 -0.37649 -300884536715000428776662757856979714048.00000
0.66146 -0.37292 -0.36910 -298215736694532734678938930638263156736.00000
0.67479 -0.35668 -0.35326 -299550156987176185379471268194872721408.00000
0.64180 -0.30821 -0.33840 -299550197551995392682812116089375293440.00000
0.66460 -0.30145 -0.33451 -295541724094796902101916148975966093312.00000
0.64269 -0.26647 -0.33164 -298215756976942338330609354585514442752.00000
0.66466 -0.25815 -0.32746 -299539833240687926679225479043968139264.00000
0.64265 -0.22607 -0.32500 -300874233250921773728087392653326417920.00000
0.67225 -0.22135 -0.32884 -302193076652989619945734138720948322304.00000
0.65692 -0.19526 -0.33412 -296865719228904075843850577645414645760.00000
0.67744 -0.18351 -0.32871 -294207283519743847749713387472105242624.00000
0.66857 -0.16187 -0.34123 -300869101801292049855470133998751055872.00000
0.67902 -0.16431 -0.32800 -294212496099011986229012341915685748736.00000
0.66144 -0.12093 -0.33017 -292893733826582554618047291637068988416.00000
0.67932 -0.10624 -0.32303 -294217708678280124708311296359266254848.00000
0.67446 -0.08732 -0.34032 -298226242982707426244218535314429313024.00000
0.67969 -0.06960 -0.34442 -300889911553545396469325103878570508288.00000
0.69212 -0.05263 -0.35589 -303548387827524831866803141946382483456.00000
0.71282 -0.05497 -0.35120 -300889911553545396469325103878570508288.00000
0.68181 -0.01342 -0.34457 -302203542376345104207672895502611906560.00000
0.69502 0.00522 -0.33335 -302219139549330312342228910938850852864.00000
0.66147 0.02334 -0.32430 -303548367545115228215132717999131197440.00000
0.68686 0.04281 -0.32607 -296870952090581817974819956036246437888.00000
0.66382 0.07737 -0.32816 -298210605244903010806321671983687794688.00000
0.69292 0.06240 -0.33224 -295531298936260625143318240088805081088.00000
0.66039 0.09479 -0.32571 -299545025537546461506854009540297359360.00000
0.69759 0.12164 -0.33957 -295541724094796902101916148975966093312.00000
0.66507 0.13281 -0.33302 -296870952090581817974819956036246437888.00000
0.67705 0.15422 -0.32324 -288900816977550064868366492065396162560.00000
0.68532 0.17704 -0.33298 -284892343520351574287470524951986962432.00000
0.68493 0.19698 -0.33475 -278209776333778836522870080387275554816.00000
0.65561 0.22439 -0.33412 -282192288306684652965623395019038654464.00000
0.67548 0.21259 -0.32802 -280857827449221994961750209567926517760.00000
0.63484 0.25068 -0.31836 -283526708599328103666155732575648219136.00000
0.65476 0.24092 -0.31315 -280857827449221994961750209567926517760.00000
0.61945 0.27850 -0.30866 -286195589749434212370561255583369920512.00000
0.64716 0.27610 -0.31172 -280847422573095321654822724628016791552.00000
0.60938 0.30970 -0.30520 -283537072910635569669742369621055373312.00000
0.62411 0.31914 -0.29909 -283531779201729016583761719388469723136.00000
0.59083 0.33206 -0.29292 -282202612053172911665869184169943236608.00000
0.61066 0.32733 -0.28911 -282197338626675962231558957884608872448.00000
0.57822 0.35921 -0.28758 -278194057466336006478291521267528892416.00000
0.59782 0.35587 -0.28394 -280862918334032511531026620327999307776.00000
0.76337 -0.48815 -0.39535 -296891599583558335375311534338055602176.00000
0.71433 -0.41525 -0.37165 -298215675847303923723927658796509298688.00000
0.74231 -0.40943 -0.36583 -295557240138143695629790468623199895552.00000
0.69996 -0.35035 -0.34853 -296881275837070076675065745187151020032.00000
0.73908 -0.35320 -0.35430 -296876164669849956454118910479826944000.00000
0.71014 -0.30994 -0.35025 -296876164669849956454118910479826944000.00000
0.74833 -0.30901 -0.35496 -296870952090581817974819956036246437888.00000
0.69712 -0.25498 -0.33138 -303543154965847089735833763555550691328.00000
0.73981 -0.27884 -0.34424 -299539833240687926679225479043968139264.00000
0.71364 -0.22049 -0.34080 -299524215785293114892999039660477906944.00000
0.73675 -0.20735 -0.33339 -296870931808172214323149532088995151872.00000
0.69815 -0.17053 -0.32210 -298205372383225268675352293592856002560.00000
0.71888 -0.15626 -0.31419 -298205352100815665023681869645604716544.00000
0.70800 -0.13342 -0.32720 -302213926970062173862929956495270346752.00000
0.71898 -0.13547 -0.31259 -302208673825974828080290154157187268608.00000
0.72317 -0.09674 -0.33779 -299545045819956065158524433487548645376.00000
0.72926 -0.07735 -0.34206 -298210605244903010806321671983687794688.00000
0.73817 -0.03698 -0.34835 -302213926970062173862929956495270346752.00000
0.75649 -0.05991 -0.33900 -302208673825974828080290154157187268608.00000
0.73146 -0.01569 -0.34207 -302213926970062173862929956495270346752.00000
0.76355 -0.01722 -0.34376 -302208673825974828080290154157187268608.00000
0.73334 0.02547 -0.34359 -294233305851265332842867311795505201152.00000
0.76460 0.04820 -0.34479 -298205392665634872327022717540107288576.00000
0.73987 0.06768 -0.35015 -291548807245764412352235349404293267456.00000
0.76929 0.09292 -0.34996 -302193096935399223597404562668199608320.00000
0.73231 0.10842 -0.34527 -294207283519743847749713387472105242624.00000
0.76908 0.13781 -0.35205 -294207283519743847749713387472105242624.00000
0.72040 0.14711 -0.33742 -286231895262624748860620121163171889152.00000
0.74325 0.17447 -0.33370 -288874794646028579775212567741996204032.00000
0.70462 0.18295 -0.32690 -287561224670457682991876047959708663808.00000
0.74410 0.19694 -0.33631 -292846922025217326562708821381100863488.00000
0.68557 0.21532 -0.31406 -286179972294039400584334816199879688192.00000
0.70173 0.24232 -0.30724 -275494022535078688808114815281831870464.00000
0.67191 0.24865 -0.30671 -282166245692753564220799046748387409920.00000
0.68959 0.25663 -0.29942 -276828483392541346811988000732944007168.00000
0.65890 0.30243 -0.30381 -286169547135503123625736907312718675968.00000
0.69011 0.30042 -0.30573 -276828503674950950463658424680195293184.00000
0.66220 0.32681 -0.31049 -284850703733435277408090161245096771584.00000
0.66382 0.34684 -0.29273 -280857827449221994961750209567926517760.00000
0.64139 0.35265 -0.29819 -280847382008276114351481876733514219520.00000
0.62636 0.36001 -0.28755 -282181842865738772355355062184626356224.00000
0.62795 0.38406 -0.29342 -278178541422989212950417201620295090176.00000
0.63396 0.38615 -0.27723 -275514872852151242725310633056153894912.00000
0.79481 -0.48295 -0.38814 -292877954111910913618457460675568467968.00000
0.82762 -0.47657 -0.37965 -292867630365422654918211671524663885824.00000
0.78758 -0.41602 -0.37242 -294212435251783175274001070073931890688.00000
0.79248 -0.39113 -0.37222 -296876144387440352802448486532575657984.00000
0.78146 -0.35490 -0.35915 -298210605244903010806321671983687794688.00000
0.81090 -0.34427 -0.35039 -298210605244903010806321671983687794688.00000
0.78933 -0.30659 -0.35856 -300874273815740981031428240547828989952.00000
0.83322 -0.30240 -0.36080 -306196418660558386654012847179782160384.00000
0.83920 -0.28086 -0.39238 -306196418660558386654012847179782160384.00000
0.86816 -0.29290 -0.38392 -306196418660558386654012847179782160384.00000
0.82394 -0.21981 -0.37497 -306186013784431713347085362239872434176.00000
0.88204 -0.21348 -0.38659 -306191226363699851826384316683452940288.00000
0.76945 -0.12782 -0.32679 -300879425547780308555715923149655638016.00000
0.80677 -0.16106 -0.32980 -306191185798880644523043468788950368256.00000
0.79636 -0.08826 -0.34523 -300879486395009119510727194991409496064.00000
0.82643 -0.11755 -0.34120 -298205392665634872327022717540107288576.00000
0.80690 -0.04288 -0.35182 -299545045819956065158524433487548645376.00000
0.82768 -0.06875 -0.34014 -300879486395009119510727194991409496064.00000
0.81188 0.00408 -0.35506 -299539833240687926679225479043968139264.00000
0.83599 -0.02067 -0.34506 -300879486395009119510727194991409496064.00000
0.82345 0.05240 -0.36431 -300858656360346169245201801164338757632.00000
0.83821 0.02847 -0.34653 -299539833240687926679225479043968139264.00000
0.87165 0.10923 -0.40285 -303527537510452277949607324172060459008.00000
0.90701 0.08622 -0.39677 -299539833240687926679225479043968139264.00000
0.89711 0.14143 -0.42368 -295520873777724348184720331201644068864.00000
0.92112 0.17417 -0.41036 -291538402369637739045307864464383541248.00000
0.82165 0.17504 -0.36816 -290198708650497338910465300622439612416.00000
0.85216 0.20905 -0.36375 -288874794646028579775212567741996204032.00000
0.80121 0.21776 -0.35597 -286200700916654332591508090290693996544.00000
0.82729 0.25201 -0.34975 -278209776333778836522870080387275554816.00000
0.76497 0.25025 -0.33191 -282171397424792891745086729350214057984.00000
0.85720 0.29312 -0.37437 -282187096009826118137994864522709434368.00000
0.76924 0.32684 -0.34390 -272835586825918460713977625108522467328.00000
0.82408 0.33096 -0.35547 -266173809109189465911561726476379226112.00000
0.76062 0.37288 -0.34384 -278178602270218023905428473462048948224.00000
0.81344 0.40874 -0.35780 -278178622552627627557098897409300234240.00000
0.72406 0.39554 -0.32108 -276849333709613900729183818507266031616.00000
0.77800 0.40975 -0.33422 -279513022562861474605960811018658512896.00000
0.71753 0.41572 -0.31967 -272851244846132479803544912386515271680.00000
0.73039 0.45059 -0.30891 -251521147374404182343848665835320115200.00000
0.67206 0.44766 -0.29351 -254184856510061359872296082293963882496.00000
0.73687 0.48538 -0.31868 -244854197643226256365474660654098939904.00000
0.86172 -0.46881 -0.36970 -288874672951570957865190024058488487936.00000
0.89699 -0.45950 -0.35811 -282207743502802635538486442824518598656.00000
0.83279 -0.38452 -0.34092 -295536470950709556319276346637883015168.00000
0.88390 -0.38575 -0.34215 -288874713516390165168530871952991059968.00000
0.85826 -0.34256 -0.35218 -296870931808172214323149532088995151872.00000
0.88974 -0.32816 -0.33977 -291533169507959996914338486073551749120.00000
0.89845 -0.30555 -0.37414 -296870952090581817974819956036246437888.00000
0.92975 -0.28755 -0.36007 -300843059187360961110645785728099811328.00000
0.91560 -0.25345 -0.38073 -298194987789508199020095232600197562368.00000
0.94822 -0.26458 -0.36940 -300848271766629099589944740171680317440.00000
0.92726 -0.19825 -0.38444 -300889891271135792817654679931319222272.00000
0.96045 -0.20704 -0.37300 -299529448646970857023968418051309699072.00000
0.89824 -0.13299 -0.36175 -300889911553545396469325103878570508288.00000
0.92103 -0.10866 -0.34426 -295546997521293851536226375261300457472.00000
0.86799 -0.07377 -0.33947 -298210625527312614457992095930939080704.00000
0.91780 -0.05227 -0.34075 -300863990634071929634523299291426979840.00000
0.89402 0.00329 -0.35561 -299545045819956065158524433487548645376.00000
0.93873 -0.02569 -0.35328 -299519043770844183717040933111399972864.00000
0.92515 0.05938 -0.37673 -299545045819956065158524433487548645376.00000
0.97625 0.06284 -0.37664 -294202070940475709270414433028524736512.00000
0.99137 0.12706 -0.42242 -295541724094796902101916148975966093312.00000
1.01318 0.09755 -0.40006 -295536511515528763622617194532385587200.00000
0.98369 0.15703 -0.41846 -296876164669849956454118910479826944000.00000
1.01064 0.19378 -0.40186 -292867630365422654918211671524663885824.00000
0.92528 0.20290 -0.38220 -291543635231315481176277242855215333376.00000
0.96426 0.24382 -0.37633 -288874875775666994381894263531001348096.00000
0.92028 0.29052 -0.38516 -275546148327760073601104359717636931584.00000
0.97360 0.31125 -0.38669 -276880609185222731604977545168749068288.00000
0.92308 0.35386 -0.39269 -272846011984454737672575533995683479552.00000
0.95504 0.33521 -0.37750 -278188986863935093560685534454707388416.00000
0.90319 0.37422 -0.38203 -268842730824114781919308097378603499520.00000
0.91472 0.37774 -0.35740 -274149258213537375755666264627066437632.00000
0.86128 0.40947 -0.35941 -271527269994434909713280907664318005248.00000
0.88614 0.45492 -0.34895 -271506500807000770402766785679001124864.00000
0.83459 0.45101 -0.34791 -275509822532159933459375070190583676928.00000
0.88157 0.48417 -0.34980 -267513604240377884304756410054579585024.00000
0.95782 -0.46564 -0.35966 -280889062360011618534203088334906982400.00000
0.93903 -0.38510 -0.34150 -282197440038723980489911077620865302528.00000
1.02428 -0.39639 -0.35279 -280847422573095321654822724628016791552.00000
0.96333 -0.33286 -0.35021 -290188466033647494816901207260540174336.00000
0.99811 -0.34762 -0.33581 -283516303723201430359228247635738492928.00000
1.00072 -0.25068 -0.36507 -291528058340739876693391651366227673088.00000
1.01798 -0.28858 -0.34181 -284835126842859672925204569756109111296.00000
1.01762 -0.22339 -0.37295 -291522845761471738214092696922647166976.00000
1.03285 -0.19455 -0.38004 -287524736615580713636783366854645121024.00000
1.04625 -0.16429 -0.38628 -286195488337386194112209135847113490432.00000
1.08624 -0.17203 -0.37114 -283531900896186638493784263071977439232.00000
0.98570 -0.05834 -0.34887 -283521536584879172490197626026570285056.00000
1.08987 -0.06785 -0.37027 -280857827449221994961750209567926517760.00000
1.03446 0.00189 -0.37606 -286195528902205401415549983741616062464.00000
1.09494 -0.03348 -0.37249 -279523386874168940609547448064065667072.00000
1.08188 0.03585 -0.40313 -284855875747884208584048267794174705664.00000
1.12421 0.03702 -0.38766 -282155861099036494565541985755728969728.00000
1.06861 0.13762 -0.39734 -288853984893775233161357597862176751616.00000
1.13747 0.14774 -0.39636 -286185144308488331760292922748957622272.00000
1.05972 0.17023 -0.39336 -292857326901343999869636306321010589696.00000
1.11539 0.21691 -0.38720 -288843661147286974461111808711272169472.00000
1.03581 0.23220 -0.38257 -284855936595113019539059539635928563712.00000
1.05890 0.27207 -0.36064 -286190417734985281194603149034291986432.00000
1.00463 0.28867 -0.36838 -275540915466082331470134981326805139456.00000
1.04132 0.30061 -0.35325 -284866382036058900149327872470340861952.00000
1.00157 0.35227 -0.33643 -279549510617738443961053492123722055680.00000
0.97979 0.37521 -0.32716 -270198102845878804795388372445791518720.00000
0.92339 0.41187 -0.33366 -274164875668932187541892704010556669952.00000
0.95698 0.39615 -0.31741 -264839571358232448076063204445031235584.00000
0.91635 0.47331 -0.33617 -274185807115643156065770217573883838464.00000
0.95184 0.46057 -0.32060 -275489012779906586845520100310764224512.00000
1.13359 -0.29435 -0.36142 -278157772235555073639903079634978209792.00000
1.15522 -0.33948 -0.33367 -254143318135193081251267838323330121728.00000
1.14172 -0.22081 -0.36185 -276828523957360554115328848627446579200.00000
1.16797 -0.26525 -0.33555 -259491465029122368315335945331431964672.00000
1.20290 -0.15707 -0.38864 -278162964532413608467531610131307429888.00000
1.23831 -0.20355 -0.36333 -260825905604175422667538706835292815360.00000
1.21424 -0.11905 -0.39310 -275494063099897896111455663176334442496.00000
