# .PCD v0.7 - Point Cloud Data file format
VERSION 0.7
FIELDS x y z rgb
SIZE 4 4 4 4
TYPE F F F F
COUNT 1 1 1 1
WIDTH 659
HEIGHT 1
VIEWPOINT 0 0 0 1 0 0 0
POINTS 659
DATA ascii
0.35729 0.08006 -0.29310 -284892404367580385242481796793740820480.00000
0.35612 0.08676 -0.29093 -284887212070721850414853266297411600384.00000
0.35484 0.09332 -0.28854 -287550880641559820639959834861552795648.00000
0.35995 -0.07945 -0.29142 -287550860359150216988289410914301509632.00000
0.36377 -0.08847 -0.29010 -287550860359150216988289410914301509632.00000
0.36207 -0.06536 -0.29380 -291543756925773103086299786538723049472.00000
0.36676 -0.06659 -0.29199 -292867792624699484131575063102674173952.00000
0.36242 -0.05774 -0.29240 -294212638075879211790705309546444750848.00000
0.36966 -0.05274 -0.29813 -292878197500826157438502548042583900160.00000
0.36600 -0.04463 -0.30243 -288895705810329944647419657358072086528.00000
0.36707 -0.03741 -0.30481 -288895726092739548299090081305323372544.00000
0.36997 -0.02302 -0.31354 -287561285517686493946887319801462521856.00000
0.37553 -0.03184 -0.31500 -290230166667792602651292842809184223232.00000
0.37065 -0.01536 -0.31513 -290230166667792602651292842809184223232.00000
0.37769 -0.00817 -0.31993 -291564586960436053351825180365793787904.00000
0.36923 0.00043 -0.30801 -291564607242845657003495604313045073920.00000
0.37942 -0.00026 -0.32599 -292899047817898711355698365816905924608.00000
0.36317 0.02249 -0.28366 -292888683506591245352111728771498770432.00000
0.37346 0.02351 -0.30346 -296892005231750408408720013283081322496.00000
0.36365 0.03705 -0.28718 -290219761791665929344365357869274497024.00000
0.37098 0.03070 -0.29460 -288885321216612874992162596365413646336.00000
0.36734 0.04590 -0.30347 -292888622659362434397100456929744912384.00000
0.36672 0.05333 -0.30249 -296891944384521597453708741441327464448.00000
0.36508 0.06795 -0.29971 -286237270101169716553282467184762683392.00000
0.37092 0.06158 -0.29980 -292904260397166849834997320260486430720.00000
0.36292 0.08212 -0.29590 -286226844942633439594684558297601671168.00000
0.36891 0.07621 -0.29639 -290230146385382998999622418861932937216.00000
0.36029 0.09573 -0.29113 -290219761791665929344365357869274497024.00000
0.36637 0.09032 -0.29196 -288885300934203271340492172418162360320.00000
0.36337 0.10378 -0.28658 -290219741509256325692694933922023211008.00000
0.37470 -0.10233 -0.29521 -288874835210847787078553415636498776064.00000
0.36958 -0.09134 -0.29249 -292878197500826157438502548042583900160.00000
0.37434 -0.09291 -0.29007 -296881478661166113191769984659663880192.00000
0.37102 -0.07569 -0.29105 -291533352049646429779372301598813323264.00000
0.37772 -0.07017 -0.29250 -295526268898678919529053101170486149120.00000
0.37315 -0.06092 -0.29332 -294191828323625865176850339666625298432.00000
0.37463 -0.05380 -0.29635 -294207425496611073311406355102864244736.00000
0.37976 -0.04037 -0.31109 -292899027535489107704027941869654638592.00000
0.38382 -0.04902 -0.30664 -296886731805253458974409786997746958336.00000
0.38598 -0.02609 -0.33064 -292899027535489107704027941869654638592.00000
0.39224 -0.03576 -0.33209 -295567888403185612756763040930125053952.00000
0.38827 -0.01811 -0.33777 -292899027535489107704027941869654638592.00000
0.39574 -0.01902 -0.34152 -290230126102973395347951994914681651200.00000
0.38963 0.00782 -0.34106 -283557943510117727238608611342628683776.00000
0.39691 -0.00124 -0.34412 -292899027535489107704027941869654638592.00000
0.38965 0.02528 -0.34158 -276880609185222731604977545168749068288.00000
0.39899 0.01686 -0.35104 -263541416013960326562248884573721067520.00000
0.37846 0.03160 -0.30188 -287561285517686493946887319801462521856.00000
0.38742 0.04112 -0.31358 -295567928968004820060103888824627625984.00000
0.38003 0.04814 -0.30970 -291564586960436053351825180365793787904.00000
0.37806 0.05545 -0.30404 -290230146385382998999622418861932937216.00000
0.37600 0.06249 -0.29825 -291580204415830865138051619749284020224.00000
0.38140 0.07180 -0.29927 -286237209253940905598271195343008825344.00000
0.37387 0.07736 -0.29473 -290230146385382998999622418861932937216.00000
0.38007 0.08779 -0.29945 -290230105820563791696281570967430365184.00000
0.37119 0.09167 -0.29016 -288885300934203271340492172418162360320.00000
0.37689 0.10232 -0.29408 -294228214966454816273590901035432411136.00000
0.36626 0.11184 -0.28153 -287561265235276890295216895854211235840.00000
0.37276 0.10685 -0.28254 -295562675823917474277464086486544547840.00000
0.38727 -0.09344 -0.31160 -299539954935145548589248022727475855360.00000
0.39263 -0.09508 -0.30882 -296860668908912766577915014779844427776.00000
0.38796 -0.08474 -0.31062 -296876266081897974712471030216083374080.00000
0.39240 -0.07626 -0.30196 -300874354945379395638109936336834134016.00000
0.38743 -0.06630 -0.30314 -302219200396559123297240182780604710912.00000
0.38915 -0.05868 -0.30643 -299550339528862618244505083720134295552.00000
0.39365 -0.04358 -0.31716 -299571169563525568510030477547205033984.00000
0.39956 -0.05364 -0.31725 -299545066102365668810194857434799931392.00000
0.40153 -0.03792 -0.34114 -299565977266667033682401947050875813888.00000
0.40892 -0.02971 -0.34118 -295562675823917474277464086486544547840.00000
0.40431 -0.01083 -0.34675 -294233427545722954752889855479012917248.00000
0.41180 -0.02096 -0.34888 -294223063234415488749303218433605763072.00000
0.40483 -0.00160 -0.34791 -300905630420988226513903662998317170688.00000
0.41158 0.00763 -0.34666 -303579663303133662742596868607865520128.00000
0.40708 0.01709 -0.35499 -300916156991572521730853691621734612992.00000
0.40517 0.02630 -0.34922 -294243954116307249969839884102430359552.00000
0.39926 0.04342 -0.33179 -298247235276647205723107320719510339584.00000
0.40589 0.03499 -0.33041 -308891403271824395058253990299908964352.00000
0.39163 0.05831 -0.30975 -296917946433633478895192241817476136960.00000
0.40466 0.05299 -0.32879 -304914103878186717094799630111726370816.00000
0.38948 0.07451 -0.30642 -286226804377814232291343710403099099136.00000
0.39630 0.06748 -0.30620 -296897096116560924977996424043154112512.00000
0.38948 0.09226 -0.31128 -290224893241295653216982616523849859072.00000
0.39667 0.08562 -0.31154 -291559333816348707569185378027710709760.00000
0.38924 0.10121 -0.31336 -291559333816348707569185378027710709760.00000
0.39282 0.11051 -0.30780 -295562655541507870625793662539293261824.00000
0.38134 0.11221 -0.29312 -291559293251529500265844530133208137728.00000
0.38300 0.11949 -0.28284 -303574511571094335218309186006038872064.00000
0.38076 0.12617 -0.27916 -290230105820563791696281570967430365184.00000
0.39649 -0.12525 -0.31225 -307562114428810668230338911397874761728.00000
0.40323 -0.11822 -0.30856 -299560663275350876944750872871038877696.00000
0.40157 -0.09990 -0.31649 -294202152070114123877096128817529880576.00000
0.40729 -0.10165 -0.31326 -292888500964904812487077913246237196288.00000
0.40235 -0.09069 -0.31560 -300869142366111257158810981893253627904.00000
0.41066 -0.08434 -0.31685 -296891802407654371892015773810568462336.00000
0.40366 -0.06304 -0.31158 -302203542376345104207672895502611906560.00000
0.40928 -0.07364 -0.31034 -295552128970923575408843633915875819520.00000
0.40886 -0.04705 -0.32294 -302219139549330312342228910938850852864.00000
0.41524 -0.05777 -0.32264 -300884678691867654338355725487738716160.00000
0.41406 -0.03965 -0.33650 -300900377276900880731263860660234092544.00000
0.42189 -0.03117 -0.33630 -298231496126794772026858337652512391168.00000
0.41526 -0.01129 -0.33678 -304898526987611112611914038622738710528.00000
0.42300 -0.02164 -0.33831 -303553681536431384952783792178968133632.00000
0.41585 -0.00187 -0.33798 -306232926997844959660775952232096989184.00000
0.41667 -0.00159 -0.31975 -314223912427949266684425233977269288960.00000
0.41634 0.01714 -0.33925 -307572580152166152492277668179538345984.00000
0.42100 0.01717 -0.33145 -310241420737453053893342343292757475328.00000
0.41219 0.03546 -0.32826 -310220631267609310931157797360189308928.00000
0.41998 0.04578 -0.33049 -308886150127737049275614187961825886208.00000
0.40647 0.06140 -0.31515 -300910761870617950386520921652892532736.00000
0.41542 0.05398 -0.31910 -310230995578916776934744434405596463104.00000
0.40399 0.07859 -0.31148 -295562614976688663322452814644790689792.00000
0.41141 0.07115 -0.31106 -298236607294014892247805172359836467200.00000
0.40927 0.10113 -0.33197 -296897055551741717674655576148651540480.00000
0.41366 0.09154 -0.32146 -295562594694279059670782390697539403776.00000
0.41525 0.11281 -0.33133 -294228214966454816273590901035432411136.00000
0.41289 0.12132 -0.32772 -294228235248864419925261324982683697152.00000
0.39771 0.12128 -0.30642 -286231935827443956163960969057674461184.00000
0.40412 0.13397 -0.30930 -271558342645947704072370394853288181760.00000
0.39971 0.13962 -0.30012 -287576842125852494778102487343198896128.00000
0.40979 -0.14295 -0.31584 -296907460427868390981583061088561266688.00000
0.41136 -0.13360 -0.31600 -292904098137890020621633928682476142592.00000
0.42077 -0.12832 -0.31769 -291559252686710292962503682238705565696.00000
0.41402 -0.11468 -0.31573 -299550238116814599986152963983877865472.00000
0.42324 -0.10874 -0.31715 -295547017803703455187896799208551743488.00000
0.41599 -0.09553 -0.31460 -282223421805426258279724154049762689024.00000
0.42495 -0.08895 -0.31566 -286221571516136490160374332012267307008.00000
0.41920 -0.07753 -0.31782 -290235196705374308265557981727503155200.00000
0.42764 -0.08034 -0.31995 -292893733826582554618047291637068988416.00000
0.42765 -0.05171 -0.33393 -299571047869067946600007933863697317888.00000
0.43699 -0.06443 -0.33908 -300905508726530604603881119314809454592.00000
0.43078 -0.03254 -0.33924 -303569258427006989435669383667955793920.00000
0.43774 -0.03332 -0.33627 -303569217862187782132328535773453221888.00000
0.43450 -0.02236 -0.32727 -302229584990276192952497243773263151104.00000
0.43330 -0.01219 -0.32361 -304882868967397093522346751344745906176.00000
0.41938 -0.00150 -0.30747 -316871963543392425123305363157920251904.00000
0.42628 0.00765 -0.30573 -311539454387267553497134119480559927296.00000
0.42180 0.01702 -0.31361 -308901747300722257410170203398064832512.00000
0.42362 0.02660 -0.31865 -306217248695221336919538241006852898816.00000
0.42328 0.03606 -0.31833 -311544606119306881021421802082386575360.00000
0.43135 0.04662 -0.31997 -310215357841112361496847571074854944768.00000
0.42185 0.05480 -0.31656 -311565415871560227635276771962206027776.00000
0.42729 0.06501 -0.31233 -306217208130402129616197393112350326784.00000
0.41612 0.08107 -0.30633 -300905508726530604603881119314809454592.00000
0.42397 0.07340 -0.30565 -306217228412811733267867817059601612800.00000
0.42190 0.09413 -0.32380 -296902207283781045198943258750478188544.00000
0.42831 0.10597 -0.32289 -296886589828386233412716819366987956224.00000
0.41906 0.12318 -0.32447 -294228255531274023576931748929934983168.00000
0.42535 0.12507 -0.32100 -295573019852815336629380299584700416000.00000
0.42458 0.13529 -0.32226 -290250854725588327355125269005495959552.00000
0.42360 0.14547 -0.32326 -291574910706924312052070969516698370048.00000
0.41436 0.15128 -0.32236 -290245723275958603482508010350920597504.00000
0.42033 0.15348 -0.31847 -294243791857030420756476492524420071424.00000
0.43679 -0.16029 -0.32628 -299571088433887153903348781758199889920.00000
0.42910 -0.13263 -0.31924 -292893693261763347314706443742566416384.00000
0.43525 -0.13474 -0.31461 -295562614976688663322452814644790689792.00000
0.43051 -0.12259 -0.31916 -296881417813937302236758712817910022144.00000
0.44058 -0.11637 -0.32035 -299550359811272221896175507667385581568.00000
0.43588 -0.09366 -0.32311 -298231536691613979330199185547014963200.00000
0.44503 -0.09701 -0.32485 -298231536691613979330199185547014963200.00000
0.44400 -0.07666 -0.33770 -299565896137028619075720251261870669824.00000
0.44818 -0.08776 -0.32951 -298231496126794772026858337652512391168.00000
0.44874 -0.05689 -0.34505 -304908810169280164008818979879140720640.00000
0.45644 -0.06949 -0.34387 -299571068151477550251678357810948603904.00000
0.44814 -0.04577 -0.34208 -307577691319386272713224502886862422016.00000
0.44729 -0.03477 -0.33881 -306243271026742822012692165330252857344.00000
0.43922 -0.02250 -0.31893 -306227673853757613878136149894013911040.00000
0.43589 -0.01199 -0.31046 -307562094146401064578668487450623475712.00000
0.43248 -0.00194 -0.30208 -307551729835093598575081850405216321536.00000
0.43973 0.00756 -0.29995 -306217268977630940571208664954104184832.00000
0.43991 0.01732 -0.30042 -306212157810410820350261830246780108800.00000
0.43981 0.02709 -0.30048 -308886190692556256578955035856328458240.00000
0.43467 0.03669 -0.30790 -312879087259179142676965411480749998080.00000
0.44084 0.04700 -0.30408 -307551689270274391271741002510713749504.00000
0.44649 0.05865 -0.31770 -304887959852207610091623162104818696192.00000
0.44292 0.06784 -0.31102 -303548326980296020911791870104628625408.00000
0.42877 0.08365 -0.30039 -304882808120168282567335479502992048128.00000
0.43707 0.07573 -0.29942 -307551689270274391271741002510713749504.00000
0.43529 0.09513 -0.29909 -299550258399224203637823387931129151488.00000
0.43718 0.10662 -0.30562 -295552149253333179060514057863127105536.00000
0.43236 0.11664 -0.31592 -298221030403439287764919580870848806912.00000
0.43892 0.11846 -0.31215 -295552149253333179060514057863127105536.00000
0.42984 0.14763 -0.31924 -294238579277762282277177538080839565312.00000
0.43616 0.14981 -0.31498 -294228174401635608970250053140929839104.00000
0.42427 0.15359 -0.30903 -294238579277762282277177538080839565312.00000
0.42279 0.16340 -0.30919 -294238579277762282277177538080839565312.00000
0.42479 0.17304 -0.29924 -300905508726530604603881119314809454592.00000
0.44956 -0.18291 -0.34060 -299534539531781373593244828811382489088.00000
0.46488 -0.18123 -0.34945 -292883247820817466704438110908154118144.00000
0.44497 -0.15223 -0.32138 -288895563833462719085726689727313084416.00000
0.44679 -0.14172 -0.32171 -291564485548388035093473060629537357824.00000
0.44980 -0.12041 -0.32165 -299555572390540360375474462110966087680.00000
0.45940 -0.12459 -0.32272 -294228214966454816273590901035432411136.00000
0.45368 -0.11153 -0.32720 -294223063234415488749303218433605763072.00000
0.46453 -0.10411 -0.32771 -295562655541507870625793662539293261824.00000
0.46078 -0.09258 -0.33732 -299565936701847826379061099156373241856.00000
0.47151 -0.08416 -0.33732 -306238099012293890836734058781174923264.00000
0.46683 -0.07219 -0.34599 -302239949301583658956083880818670305280.00000
0.47732 -0.06280 -0.34536 -300889891271135792817654679931319222272.00000
0.46775 -0.03786 -0.34339 -306206884383913870915951603961445744640.00000
0.47974 -0.05167 -0.34873 -303527659204909899859629867855568175104.00000
0.47148 -0.02640 -0.32996 -306196540355016008564035390863289876480.00000
0.46995 -0.01495 -0.32622 -303543296942714315297526731186309693440.00000
0.44890 0.00748 -0.30141 -304888122111484439304986553682828984320.00000
0.45792 -0.00297 -0.30175 -296886711522843855322739363050495672320.00000
0.44898 0.02765 -0.30193 -299545106667184876113535705329302503424.00000
0.45616 0.02799 -0.29842 -302219180114149519645569758833353424896.00000
0.45808 0.03861 -0.30277 -302219159831739915993899334886102138880.00000
0.46475 0.05057 -0.31690 -300889911553545396469325103878570508288.00000
0.45612 0.06026 -0.31936 -299555410131263531162111070532955799552.00000
0.46357 0.06120 -0.31556 -296886569545976629761046395419736670208.00000
0.44601 0.07783 -0.30065 -302213926970062173862929956495270346752.00000
0.46061 0.09320 -0.31410 -292888521247314416138748337193488482304.00000
0.44610 0.10967 -0.30674 -295552149253333179060514057863127105536.00000
0.45566 0.10186 -0.30597 -294228174401635608970250053140929839104.00000
0.44722 0.13269 -0.31445 -292893733826582554618047291637068988416.00000
0.45737 0.12544 -0.31420 -288890371536604184258098159230983864320.00000
0.44499 0.15413 -0.31589 -291559293251529500265844530133208137728.00000
0.45157 0.15639 -0.31104 -290224812111657238610300920734844715008.00000
0.43873 0.16020 -0.30535 -294222921257548263187610250802846760960.00000
0.44746 0.16475 -0.30573 -295546936674065040581215103419546599424.00000
0.43058 0.17536 -0.29440 -299534640943829391851596948547638919168.00000
0.43416 0.18725 -0.28841 -299534681508648599154937796442141491200.00000
0.47026 -0.21112 -0.34926 -294228113554406798015238781299175981056.00000
0.47289 -0.19935 -0.34993 -299545106667184876113535705329302503424.00000
0.48619 -0.19391 -0.35108 -294228194684045212621920477088181125120.00000
0.46917 -0.15429 -0.32975 -298241901002921445333785822592422117376.00000
0.47955 -0.15959 -0.33021 -294228174401635608970250053140929839104.00000
0.46780 -0.14028 -0.32351 -296891842972473579195356621705071034368.00000
0.46940 -0.12894 -0.32353 -296881438096346905888429136765161308160.00000
0.47180 -0.10600 -0.32270 -299555531825721153072133614216463515648.00000
0.48238 -0.10981 -0.32338 -299555470978492342117122342374709657600.00000
0.47564 -0.09610 -0.32778 -299560683557760480596421296818290163712.00000
0.48698 -0.08746 -0.32736 -302224331846188847169857441435180072960.00000
0.48243 -0.07513 -0.33681 -306243230461923614709351317435750285312.00000
0.49350 -0.06545 -0.33572 -303558772421241901522060202939040923648.00000
0.49622 -0.05395 -0.33922 -308875785816429583272027550916418732032.00000
0.49516 -0.04136 -0.33612 -310194608936087825838003873036789350400.00000
0.48238 -0.02763 -0.33143 -308860208925853978789141959427431071744.00000
0.49201 -0.01668 -0.32881 -308865380940302909965100065976509005824.00000
0.47047 -0.00358 -0.30773 -294228214966454816273590901035432411136.00000
0.48452 0.00714 -0.31472 -299560683557760480596421296818290163712.00000
0.46851 0.02883 -0.30418 -302224331846188847169857441435180072960.00000
0.48170 0.02973 -0.30998 -302224331846188847169857441435180072960.00000
0.47240 0.05133 -0.31286 -296886589828386233412716819366987956224.00000
0.48114 0.04096 -0.30950 -299555450696082738465451918427458371584.00000
0.47224 0.07371 -0.31481 -283547477786762242976669854560965099520.00000
0.48169 0.06388 -0.31224 -300889911553545396469325103878570508288.00000
0.47300 0.08539 -0.31777 -282218249790977327103766047500684754944.00000
0.48365 0.08789 -0.31852 -294223063234415488749303218433605763072.00000
0.47074 0.10756 -0.31714 -291559293251529500265844530133208137728.00000
0.47796 0.12112 -0.31395 -283552670083620777804298385057294319616.00000
0.46355 0.13864 -0.31044 -292898905841031485794005398186146922496.00000
0.47443 0.13113 -0.30980 -288890412101423391561439007125486436352.00000
0.46513 0.15194 -0.31656 -292893693261763347314706443742566416384.00000
0.47062 0.16560 -0.31135 -286211105792781005898435575230603722752.00000
0.45921 0.17189 -0.31135 -298210666092131821761332943825441652736.00000
0.46589 0.17431 -0.30565 -283526668034508896362814884681145647104.00000
0.44476 0.19510 -0.29314 -290188506598466702120242055155042746368.00000
0.45589 0.19029 -0.29352 -294186656309176934000892233117547364352.00000
0.44790 0.20730 -0.28576 -294191787758806657873509491772122726400.00000
0.48751 -0.22089 -0.34176 -296902247848600252502284106644980760576.00000
0.49075 -0.23538 -0.33200 -306227633288938406574795301999511339008.00000
0.50179 -0.21589 -0.34253 -296891802407654371892015773810568462336.00000
0.50476 -0.20330 -0.34347 -298226242982707426244218535314429313024.00000
0.49586 -0.18414 -0.34424 -296896994704512906719644304306897682432.00000
0.50568 -0.17413 -0.33728 -300874294098150584683098664495080275968.00000
0.48877 -0.15013 -0.32407 -302208734673203639035301425998941126656.00000
0.50185 -0.14298 -0.32416 -307520474641894371350958547690984570880.00000
0.49216 -0.12600 -0.32417 -302208694108384431731960578104438554624.00000
0.50485 -0.11788 -0.32380 -304882808120168282567335479502992048128.00000
0.50219 -0.10334 -0.31704 -298236627576424495899475596307087753216.00000
0.50646 -0.09246 -0.32207 -291585254735822174403987182614854238208.00000
0.50178 -0.06680 -0.33041 -304882808120168282567335479502992048128.00000
0.51018 -0.06817 -0.32476 -304867190664773470781109040119501815808.00000
0.50361 -0.04231 -0.33101 -308860127796215564182460263638425927680.00000
0.51323 -0.05630 -0.32839 -311518644635014206883279149600740474880.00000
0.50219 -0.02965 -0.32765 -307520474641894371350958547690984570880.00000
0.51242 -0.01811 -0.32438 -300869142366111257158810981893253627904.00000
0.49825 -0.00494 -0.31983 -308865340375483702661759218082006433792.00000
0.51012 -0.00545 -0.32023 -302208775238022846338642273893443698688.00000
0.49579 0.03069 -0.31580 -299555450696082738465451918427458371584.00000
0.51087 0.03171 -0.32162 -295552128970923575408843633915875819520.00000
0.49211 0.04200 -0.31001 -300889911553545396469325103878570508288.00000
0.50567 0.05563 -0.31445 -300889891271135792817654679931319222272.00000
0.49389 0.07801 -0.31603 -295557503809468543101505979937466613760.00000
0.50410 0.06754 -0.31286 -298231475844385168375187913705261105152.00000
0.49796 0.09168 -0.32456 -292888642941772038048770880876996198400.00000
0.50626 0.09316 -0.31908 -294212597511060004487364461651942178816.00000
0.49530 0.11563 -0.32366 -294228235248864419925261324982683697152.00000
0.49964 0.12845 -0.31389 -283568226691786778635513552599030693888.00000
0.49556 0.13901 -0.30942 -287566335837677803212822882667032739840.00000
0.49441 0.15127 -0.31008 -292888541529724019790418761140739768320.00000
0.48552 0.16105 -0.31663 -292893713544172950966376867689817702400.00000
0.48386 0.17298 -0.31681 -288874814928438183426882991689247490048.00000
0.47870 0.18200 -0.31082 -288864470899540321074966778591091621888.00000
0.48324 0.19597 -0.30358 -283526708599328103666155732575648219136.00000
0.46491 0.19557 -0.29262 -292857408030982414476318002110015733760.00000
0.47127 0.21162 -0.29000 -291522926891110152820774392711652311040.00000
0.45637 0.21288 -0.28453 -287529989759668059419423169192728199168.00000
0.50170 -0.24310 -0.33099 -302224270998960036214846169593426214912.00000
0.50817 -0.24564 -0.32155 -298221010121029684113249156923597520896.00000
0.50880 -0.21856 -0.33395 -284866260341601278239305328786833145856.00000
0.52404 -0.21300 -0.33408 -295531380065899039749999935877810225152.00000
0.51496 -0.19319 -0.33612 -296871012937810628929831227878000295936.00000
0.53004 -0.18651 -0.33598 -299534701791058202806608220389392777216.00000
0.51562 -0.16384 -0.33015 -299534681508648599154937796442141491200.00000
0.51353 -0.14800 -0.32367 -304856806071056401125851979126843375616.00000
0.51532 -0.13513 -0.32375 -299534620661419788199926524600387633152.00000
0.52331 -0.13737 -0.31646 -299534661226238995503267372494890205184.00000
0.51851 -0.09590 -0.32187 -298236627576424495899475596307087753216.00000
0.52692 -0.09769 -0.31515 -296886569545976629761046395419736670208.00000
0.52251 -0.07084 -0.32473 -296870952090581817974819956036246437888.00000
0.53124 -0.07226 -0.31823 -299555450696082738465451918427458371584.00000
0.52468 -0.04510 -0.32562 -300879567524647534117408890780414640128.00000
0.53362 -0.04610 -0.31932 -298215919236219167543972746163524730880.00000
0.52493 -0.01908 -0.32448 -295546997521293851536226375261300457472.00000
0.53605 -0.03321 -0.32203 -295541845789254524011938692659473809408.00000
0.52699 0.00675 -0.32707 -291564505830797638745143484576788643840.00000
0.53934 -0.00679 -0.32579 -300874395510198602941450784231336706048.00000
0.52725 0.01977 -0.32753 -291569657562836966269431167178615291904.00000
0.54044 0.02011 -0.32728 -292898926123441089445675822133398208512.00000
0.51890 0.04470 -0.31546 -302229503860637778345815547984258007040.00000
0.53795 0.06029 -0.32523 -303553580124383366694431672442711703552.00000
0.52096 0.08376 -0.32160 -300874354945379395638109936336834134016.00000
0.53363 0.08626 -0.32107 -292862539480612138348935260764591095808.00000
0.51875 0.10933 -0.32131 -292867670930241862221552519419166457856.00000
0.52733 0.11108 -0.31484 -291538463216866550000319136306137399296.00000
0.51111 0.13231 -0.31332 -291538402369637739045307864464383541248.00000
0.52350 0.12293 -0.31100 -288859177190633767988986128358505971712.00000
0.50672 0.14315 -0.30870 -292878014959139724573468732517322326016.00000
0.51323 0.15807 -0.30240 -288859197473043371640656552305757257728.00000
0.50385 0.16826 -0.30948 -290204063206632702951457222696779120640.00000
0.50931 0.18313 -0.30210 -282192227459455842010612123177284796416.00000
0.49960 0.19280 -0.30889 -282202672900401722620880456011697094656.00000
0.50683 0.19538 -0.30144 -286205994625560885677488740523279646720.00000
0.48743 0.22443 -0.29975 -294191787758806657873509491772122726400.00000
0.50093 0.21921 -0.29924 -288880088354935132861193217974581854208.00000
0.48760 0.23941 -0.30428 -288864430334721113771625930696589049856.00000
0.48645 0.24882 -0.28800 -280868232325348668268677694507836243968.00000
0.51957 -0.25363 -0.31958 -299550197551995392682812116089375293440.00000
0.54137 -0.25484 -0.32734 -300874192686102566424746544758823845888.00000
0.53651 -0.22029 -0.33258 -294196919208436381746126750426698088448.00000
0.53999 -0.23622 -0.32108 -298205372383225268675352293592856002560.00000
0.54293 -0.19305 -0.33469 -299539792675868719375884631149465567232.00000
0.54756 -0.20947 -0.32417 -292872842944690793397510625968244391936.00000
0.54062 -0.17554 -0.32798 -296870870960943403368138260247241293824.00000
0.55641 -0.16750 -0.32675 -299550197551995392682812116089375293440.00000
0.54198 -0.13114 -0.32162 -308854894934537822051490885247594135552.00000
0.55858 -0.15310 -0.32696 -302198248667438551121692245270026256384.00000
0.54858 -0.10514 -0.32670 -304877615823309747739706949006662828032.00000
0.56240 -0.10908 -0.32530 -310210185826663430320889464525777010688.00000
0.54440 -0.08913 -0.31899 -296886589828386233412716819366987956224.00000
0.55785 -0.07797 -0.31589 -295552169535742782712184481810378391552.00000
0.54686 -0.04803 -0.31849 -304872545220908834822100962193841324032.00000
0.55613 -0.04907 -0.31125 -296860648626503162926244590832593141760.00000
0.54725 -0.02065 -0.31755 -307520616618761596912651515321743572992.00000
0.55888 -0.03552 -0.31406 -298184724890248751274860715291046838272.00000
0.54958 0.00657 -0.32021 -308849844614546512785555322382023917568.00000
0.56718 -0.00798 -0.32395 -310189355792000480055364070698706272256.00000
0.54957 0.03403 -0.32054 -300879547242237930465738466833163354112.00000
0.56350 0.03486 -0.31929 -300879506677418723162397618938660782080.00000
0.54869 0.04769 -0.31983 -284887049811445021201489874719401312256.00000
0.56097 0.06297 -0.31720 -288895563833462719085726689727313084416.00000
0.54521 0.07455 -0.31670 -288916515562583291261274627237891538944.00000
0.54265 0.08763 -0.31431 -288885321216612874992162596365413646336.00000
0.53957 0.10041 -0.31139 -275535723169223796642506450830475919360.00000
0.54849 0.10200 -0.30416 -296871154914677854491524195508759298048.00000
0.53589 0.12665 -0.30968 -284871574332917434976956402966670082048.00000
0.54873 0.13050 -0.30790 -291548949222631637913928317035052269568.00000
0.53287 0.16778 -0.31231 -291538483499276153651989560253388685312.00000
0.55144 0.16134 -0.31596 -288890432383832995213109431072737722368.00000
0.52875 0.19454 -0.31213 -282197500885952791444922349462619160576.00000
0.54339 0.18673 -0.31025 -283557943510117727238608611342628683776.00000
0.51896 0.21689 -0.30434 -274196070014902603811004734883034562560.00000
0.54749 0.22122 -0.32231 -280889102924830825837543936229409554432.00000
0.51205 0.24129 -0.30149 -283537113475454776973083217515557945344.00000
0.53603 0.24418 -0.31340 -279549409205690425702701372387465625600.00000
0.50414 0.24877 -0.29342 -283542326054722915452382171959138451456.00000
0.51027 0.26714 -0.28817 -276885740634852455477594803823324430336.00000
0.55741 -0.29953 -0.31707 -300884556997410032428333181804231000064.00000
0.54957 -0.27683 -0.32264 -303548245850657606305110174315623481344.00000
0.56757 -0.27224 -0.32144 -304887899004978799136611890263064838144.00000
0.56283 -0.23566 -0.32812 -298220969556210476809908309029094948864.00000
0.56592 -0.25232 -0.31517 -303553478712335348436079552706455273472.00000
0.56667 -0.22139 -0.32952 -296886569545976629761046395419736670208.00000
0.58452 -0.21413 -0.32782 -302213926970062173862929956495270346752.00000
0.57925 -0.19619 -0.33932 -298215797541761545633950202480017014784.00000
0.59707 -0.18737 -0.33712 -303548367545115228215132717999131197440.00000
0.58578 -0.14949 -0.33928 -303543073836208675129152067766545547264.00000
0.59942 -0.17129 -0.33719 -300879466112599515859056771044158210048.00000
0.58699 -0.13364 -0.33850 -302208673825974828080290154157187268608.00000
0.60951 -0.12473 -0.34242 -304877554976080936784695677164908969984.00000
0.58238 -0.09978 -0.32874 -307546476691006252792442048067133243392.00000
0.60904 -0.09103 -0.33840 -304867190664773470781109040119501815808.00000
0.57128 -0.06600 -0.31191 -298200261216005148454405458885531926528.00000
0.58970 -0.05426 -0.31303 -303532851501768434687258398351897395200.00000
0.59290 -0.03953 -0.31599 -302208876650070864596994393629700128768.00000
0.59541 -0.02451 -0.31834 -299545147232004083416876553223805075456.00000
0.58191 -0.00861 -0.32228 -304872423526451212912078418510333607936.00000
0.59304 0.00620 -0.31498 -299555450696082738465451918427458371584.00000
0.58831 0.02123 -0.30947 -299545066102365668810194857434799931392.00000
0.58792 0.03619 -0.30928 -300879506677418723162397618938660782080.00000
0.57523 0.06480 -0.31535 -294222921257548263187610250802846760960.00000
0.58682 0.05106 -0.30848 -300879506677418723162397618938660782080.00000
0.58254 0.08025 -0.30505 -302203542376345104207672895502611906560.00000
0.57940 0.09442 -0.30245 -302198390644305776683385212900785258496.00000
0.56220 0.11977 -0.30403 -294202192634933331180436976712032452608.00000
0.57563 0.10823 -0.29930 -299534681508648599154937796442141491200.00000
0.57088 0.15387 -0.31899 -290214386953120961651703011847683702784.00000
0.58583 0.14297 -0.31492 -294207283519743847749713387472105242624.00000
0.57866 0.19039 -0.33404 -284892343520351574287470524951986962432.00000
0.59936 0.19998 -0.33849 -283552730930849588759309656899048177664.00000
0.56875 0.21733 -0.32713 -280883910627972291009915405733080334336.00000
0.59127 0.21245 -0.33144 -279544216908831890875072841891136405504.00000
0.55715 0.24216 -0.31859 -284881999491453711935554311853831094272.00000
0.57036 0.24951 -0.31517 -282218290355796534407106895395187326976.00000
0.55470 0.27483 -0.32313 -280889062360011618534203088334906982400.00000
0.57208 0.26882 -0.32111 -280883768651105065448222438102321332224.00000
0.54495 0.28295 -0.31397 -276885740634852455477594803823324430336.00000
0.54686 0.29857 -0.30072 -278209756051369232871199656440024268800.00000
0.53024 0.30256 -0.30241 -278214968630637371350498610883604774912.00000
0.53636 0.30501 -0.29117 -275540895183672727818464557379553853440.00000
0.59651 -0.35989 -0.35110 -295557159008505281023108772834194751488.00000
0.60885 -0.34633 -0.33792 -296896812162826473854610488781636108288.00000
0.58332 -0.30302 -0.32447 -298226141570659407985866415578172882944.00000
0.60332 -0.29827 -0.32223 -295562533847050248715771118855785545728.00000
0.58637 -0.26696 -0.31969 -299550197551995392682812116089375293440.00000
0.61351 -0.26718 -0.32592 -298221010121029684113249156923597520896.00000
0.59941 -0.22168 -0.32440 -304882808120168282567335479502992048128.00000
0.60769 -0.22441 -0.31241 -298210605244903010806321671983687794688.00000
0.61860 -0.21334 -0.32144 -298210605244903010806321671983687794688.00000
0.62916 -0.20128 -0.33015 -303543154965847089735833763555550691328.00000
0.62230 -0.18149 -0.34215 -299539833240687926679225479043968139264.00000
0.63930 -0.18825 -0.33850 -300874273815740981031428240547828989952.00000
0.63304 -0.13229 -0.34741 -303548367545115228215132717999131197440.00000
0.64344 -0.13449 -0.33609 -299550258399224203637823387931129151488.00000
0.63227 -0.09663 -0.34305 -299545066102365668810194857434799931392.00000
0.64293 -0.09837 -0.33218 -292909290434748555449262459178805362688.00000
0.64214 -0.06407 -0.35160 -304877595540900144088036525059411542016.00000
0.65568 -0.08390 -0.34436 -300884678691867654338355725487738716160.00000
0.63251 -0.04501 -0.33995 -300889911553545396469325103878570508288.00000
0.66773 -0.03125 -0.35437 -303558792703651505173730626886292209664.00000
0.61306 -0.00994 -0.31722 -290240470131871257699868208012837519360.00000
0.64322 0.00571 -0.32801 -300895144415223138600294482269402300416.00000
0.59792 0.03665 -0.30052 -298221050685848891416590004818100092928.00000
0.61884 0.03803 -0.30272 -302224352128598450821527865382431358976.00000
0.59675 0.05179 -0.29971 -302213947252471777514600380442521632768.00000
0.61546 0.06965 -0.30032 -303553580124383366694431672442711703552.00000
0.59223 0.08147 -0.29623 -299534661226238995503267372494890205184.00000
0.61819 0.08636 -0.30411 -299550258399224203637823387931129151488.00000
0.59023 0.12718 -0.29793 -298200220651185941151064610991029354496.00000
0.60460 0.11488 -0.29211 -296860668908912766577915014779844427776.00000
0.61165 0.16927 -0.32619 -288890432383832995213109431072737722368.00000
0.62834 0.15726 -0.32085 -288864470899540321074966778591091621888.00000
0.62165 0.21032 -0.34278 -284881979209044108283883887906579808256.00000
0.64007 0.19922 -0.33804 -248852043117792433471068479407834267648.00000
0.61280 0.22333 -0.33541 -284887151223493039459841994455657742336.00000
0.61893 0.24295 -0.32335 -279549368640871218399360524492963053568.00000
0.59640 0.26719 -0.32606 -278214846936179749440476067200097058816.00000
0.60864 0.25441 -0.31509 -282218229508567723452095623553433468928.00000
0.58582 0.27704 -0.31706 -272877125200786739335005869079156228096.00000
0.60000 0.28552 -0.31240 -279549328076052011096019676598460481536.00000
0.57010 0.29988 -0.30585 -279549368640871218399360524492963053568.00000
0.57765 0.32260 -0.29857 -283547538633991053931681126402718957568.00000
0.57181 0.33609 -0.29606 -279544216908831890875072841891136405504.00000
0.66198 -0.42407 -0.38047 -299555268154396305600418102902196797440.00000
0.71528 -0.44935 -0.40575 -298220807296933647596544917451084660736.00000
0.65064 -0.36206 -0.35711 -299555268154396305600418102902196797440.00000
0.68630 -0.36737 -0.36513 -299550116422356978076130420300370149376.00000
0.64180 -0.30821 -0.33840 -299550197551995392682812116089375293440.00000
0.68526 -0.31818 -0.35536 -295552088406104368105502786021373247488.00000
0.63428 -0.26006 -0.32271 -298231333867517942813494946074502103040.00000
0.65575 -0.25194 -0.31863 -299550197551995392682812116089375293440.00000
0.63831 -0.20399 -0.31760 -299545045819956065158524433487548645376.00000
0.64731 -0.20664 -0.30452 -299539812958278323027555055096716853248.00000
0.65905 -0.17687 -0.33381 -296907359015820372723230941352304836608.00000
0.66903 -0.17942 -0.32062 -291564424701159224138461788787783499776.00000
0.67902 -0.16431 -0.32800 -292898865276212278490664550291644350464.00000
0.67988 -0.14499 -0.32683 -296896974422103303067973880359646396416.00000
0.65402 -0.11839 -0.32270 -299555450696082738465451918427458371584.00000
0.66442 -0.12034 -0.31044 -298221010121029684113249156923597520896.00000
0.67446 -0.08732 -0.34032 -302219098984511105038888063044348280832.00000
0.69950 -0.07253 -0.33962 -299555450696082738465451918427458371584.00000
0.70058 -0.05391 -0.36429 -304887959852207610091623162104818696192.00000
0.71646 -0.03528 -0.35394 -302213926970062173862929956495270346752.00000
0.69793 -0.01436 -0.36054 -302203542376345104207672895502611906560.00000
0.70318 0.00513 -0.34095 -303543154965847089735833763555550691328.00000
0.66147 0.02334 -0.32430 -306212036115953198440239286563272392704.00000
0.67208 0.04162 -0.31228 -299539914370326341285907174832973283328.00000
0.65017 0.07497 -0.31459 -298226222700297822592548111367178027008.00000
0.67046 0.05955 -0.31126 -295531420630718247053340783772312797184.00000
0.66039 0.09479 -0.32571 -296902187001371441547272834803226902528.00000
0.68164 0.11738 -0.32455 -295552128970923575408843633915875819520.00000
0.64499 0.14423 -0.31445 -296865780076132886798861849487168503808.00000
0.66949 0.15148 -0.31607 -290224852676476445913641768629347287040.00000
0.65867 0.18704 -0.33226 -282218209226158119800425199606182182912.00000
0.66960 0.17056 -0.31799 -284892343520351574287470524951986962432.00000
0.65561 0.22439 -0.33412 -278204624601739508998582397785448906752.00000
0.66540 0.22725 -0.32080 -280857827449221994961750209567926517760.00000
0.63484 0.25068 -0.31836 -286190397452575677542932725087040700416.00000
0.65476 0.24092 -0.31315 -284835126842859672925204569756109111296.00000
0.61945 0.27850 -0.30866 -288869703761218063205936156981923414016.00000
0.64716 0.27610 -0.31172 -282187055445006910834654016628206862336.00000
0.60938 0.30970 -0.30520 -286200721199063936243178514237945282560.00000
0.64559 0.31670 -0.31719 -282223340675787843673042458260757544960.00000
0.60527 0.34702 -0.30902 -290178020592701614206632874426127876096.00000
0.63429 0.35000 -0.31361 -286195427490157383157197864005359632384.00000
0.60057 0.38538 -0.31315 -278188905734296678954003838665702244352.00000
0.63044 0.39137 -0.31858 -279518093165262387523566797831480016896.00000
0.75536 -0.48558 -0.41751 -296886387004290196896012579894475096064.00000
0.76337 -0.48815 -0.39535 -302224129022092810653153201962667212800.00000
0.74386 -0.44416 -0.40056 -298220827579343251248215341398335946752.00000
0.76865 -0.46298 -0.39481 -298226040158611389727514295841916452864.00000
0.72515 -0.37196 -0.37265 -299550177269585789031141692142124007424.00000
0.76742 -0.37562 -0.37948 -298215736694532734678938930638263156736.00000
0.71014 -0.30994 -0.35025 -298210605244903010806321671983687794688.00000
0.73579 -0.30047 -0.34402 -300874233250921773728087392653326417920.00000
0.68725 -0.24871 -0.32227 -304877554976080936784695677164908969984.00000
0.69632 -0.25152 -0.30661 -300874233250921773728087392653326417920.00000
0.67616 -0.20057 -0.30672 -299524134655654700286317343871472762880.00000
0.67886 -0.18193 -0.30685 -299539833240687926679225479043968139264.00000
0.68931 -0.16672 -0.31416 -298205392665634872327022717540107288576.00000
0.69942 -0.16908 -0.29971 -298210584962493407154651248036436508672.00000
0.69844 -0.11039 -0.31721 -302224331846188847169857441435180072960.00000
0.70991 -0.13247 -0.30503 -303548367545115228215132717999131197440.00000
0.72926 -0.07735 -0.34206 -299555450696082738465451918427458371584.00000
0.73487 -0.09835 -0.32306 -300889891271135792817654679931319222272.00000
0.73817 -0.03698 -0.34835 -303548367545115228215132717999131197440.00000
0.75059 -0.03773 -0.33350 -302213926970062173862929956495270346752.00000
0.73146 -0.01569 -0.34207 -306212036115953198440239286563272392704.00000
0.75345 -0.01665 -0.33546 -303543154965847089735833763555550691328.00000
0.71556 0.02487 -0.32801 -295567746426318387195070073299366051840.00000
0.74485 0.04665 -0.32856 -296876184952259560105789334427078230016.00000
0.72738 0.08666 -0.33993 -294233305851265332842867311795505201152.00000
0.74898 0.08948 -0.33321 -299545005255136857855183585593046073344.00000
0.71781 0.12568 -0.33369 -288895543551053115434056265780061798400.00000
0.73871 0.12987 -0.32686 -290240389002232843093186512223832375296.00000
0.71149 0.14434 -0.32951 -290224812111657238610300920734844715008.00000
0.73193 0.14915 -0.32262 -288900776412730857565025644170893590528.00000
0.70462 0.18295 -0.32690 -288885260369384064037151324523659788288.00000
0.73411 0.19292 -0.32792 -288874835210847787078553415636498776064.00000
0.68557 0.21532 -0.31406 -278199310610423352260931323605611970560.00000
0.70173 0.24232 -0.30724 -272851102869265254241851944755756269568.00000
0.67191 0.24865 -0.30671 -283505837999845946097289490854074908672.00000
0.68959 0.25663 -0.29942 -274180351147459773766426175763287900160.00000
0.66754 0.30910 -0.31196 -282202612053172911665869184169943236608.00000
0.69011 0.30042 -0.30573 -278188905734296678954003838665702244352.00000
0.66220 0.32681 -0.31049 -282212956082070774017785397268099104768.00000
0.66382 0.34684 -0.29273 -282192268024275049313952971071787368448.00000
0.65951 0.36983 -0.31583 -280852554022725045527439983282592153600.00000
0.65980 0.38942 -0.29701 -279513022562861474605960811018658512896.00000
0.65626 0.41449 -0.32165 -280847422573095321654822724628016791552.00000
0.66274 0.41673 -0.30413 -280837058261787855651236087582609637376.00000
0.81884 -0.47363 -0.40353 -292877954111910913618457460675568467968.00000
0.83250 -0.44908 -0.37886 -292867630365422654918211671524663885824.00000
0.83702 -0.42164 -0.37804 -296865780076132886798861849487168503808.00000
0.78146 -0.35490 -0.35915 -302208714390794035383631002051689840640.00000
0.82725 -0.35517 -0.36283 -300874273815740981031428240547828989952.00000
0.72625 -0.26738 -0.30751 -306211995551133991136898438668769820672.00000
0.77177 -0.29264 -0.31756 -300874233250921773728087392653326417920.00000
0.73383 -0.22605 -0.30834 -304877534693671333133025253217657683968.00000
0.75750 -0.21263 -0.29935 -300884638127048447035014877593236144128.00000
0.71995 -0.15493 -0.29126 -306211995551133991136898438668769820672.00000
0.73974 -0.16066 -0.28254 -307541223546918907009802245729050165248.00000
0.73857 -0.11913 -0.30279 -306201590675007317829970953728860094464.00000
0.75015 -0.14267 -0.28859 -307525606091524095223575806345559932928.00000
0.76318 -0.08195 -0.31961 -304877595540900144088036525059411542016.00000
0.79712 -0.08745 -0.31899 -300874273815740981031428240547828989952.00000
0.76879 -0.06097 -0.32311 -300889891271135792817654679931319222272.00000
0.79640 -0.04132 -0.31705 -298221010121029684113249156923597520896.00000
0.76750 0.00457 -0.32096 -302198289232257758425033093164528828416.00000
0.78855 -0.01805 -0.31104 -304877595540900144088036525059411542016.00000
0.76787 0.02630 -0.32130 -303543114401027882432492915661048119296.00000
0.80073 0.05023 -0.31994 -298215777259351941982279778532765728768.00000
0.77130 0.09240 -0.32543 -300874233250921773728087392653326417920.00000
0.80571 0.09731 -0.32473 -300884597562229239731674029698733572096.00000
0.75633 0.11144 -0.31480 -294202030375656501967073585134022164480.00000
0.78252 0.13868 -0.31006 -290229943561286962482918179389420077056.00000
0.75467 0.17677 -0.31759 -287545505803014852947297488839962001408.00000
0.77474 0.15927 -0.30575 -291553999542622947179863879900622487552.00000
0.75505 0.22215 -0.32174 -280883768651105065448222438102321332224.00000
0.77723 0.20625 -0.31086 -286205974343151282025818316576028360704.00000
0.73305 0.23443 -0.30654 -280852695999592271089132950913351155712.00000
0.76429 0.24755 -0.30548 -279518295989358424040271037303992877056.00000
0.73399 0.30401 -0.31525 -270177191681577439923181282829715636224.00000
0.75863 0.29235 -0.30625 -270177191681577439923181282829715636224.00000
0.73575 0.35410 -0.32327 -278189007146344697212355958401958674432.00000
0.77475 0.35320 -0.32451 -275514933699380053680321904897907752960.00000
0.73650 0.40634 -0.33158 -279523447721397751564558719905819525120.00000
0.76402 0.39853 -0.32333 -279518214859720009433589341514987732992.00000
0.73014 0.42742 -0.33043 -274190918282863276286717052281207914496.00000
0.76563 0.45579 -0.33275 -266189568541451503259481133490628460544.00000
0.71638 0.46873 -0.32775 -262181054519433805375244318482716688384.00000
0.88362 -0.48684 -0.38563 -290203961794584684693105102960522690560.00000
0.89092 -0.42601 -0.38241 -299524215785293114892999039660477906944.00000
0.94762 -0.46232 -0.38775 -291522906608700549169103968764401025024.00000
0.87660 -0.35374 -0.36505 -295536470950709556319276346637883015168.00000
0.90906 -0.33887 -0.35223 -294196878643617174442785902532195516416.00000
0.86267 -0.28729 -0.34940 -298220908708981665854897037187341090816.00000
0.89220 -0.27036 -0.33616 -296870952090581817974819956036246437888.00000
0.87991 -0.23866 -0.35635 -296881316401889283978406593081653592064.00000
0.90779 -0.21890 -0.34178 -298210605244903010806321671983687794688.00000
0.82935 -0.14177 -0.31671 -304877575258490540436366101112160256000.00000
0.84108 -0.14367 -0.29677 -298210645809722218109662519878190366720.00000
0.85269 -0.12245 -0.33114 -306206823536685059960940332119691886592.00000
0.87571 -0.10122 -0.34550 -304877595540900144088036525059411542016.00000
0.85393 -0.07176 -0.33006 -300889891271135792817654679931319222272.00000
0.87209 -0.04780 -0.31249 -303537982951398158559875657006472757248.00000
0.84918 -0.02111 -0.32589 -306212036115953198440239286563272392704.00000
0.86196 -0.02153 -0.30586 -300853484345897238069243694615260823552.00000
0.85149 0.02873 -0.32732 -296886589828386233412716819366987956224.00000
0.87692 0.05530 -0.31526 -294212435251783175274001070073931890688.00000
0.84738 0.07834 -0.32535 -295552047841285160802161938126870675456.00000
0.86912 0.10611 -0.31161 -296881316401889283978406593081653592064.00000
0.83704 0.12639 -0.32009 -296902045024504215985579867172467900416.00000
0.86278 0.13073 -0.30858 -295546875826836229626203831577792741376.00000
0.83373 0.17553 -0.32037 -292888460400085605183737065351734624256.00000
0.87364 0.18593 -0.31781 -291538442934456946348648712358886113280.00000
0.86887 0.26799 -0.34993 -280852716282001874740803374860602441728.00000
0.93318 0.29370 -0.36104 -280852716282001874740803374860602441728.00000
0.90350 0.31300 -0.37624 -282187075727416514486324440575458148352.00000
0.91572 0.34699 -0.35509 -278178541422989212950417201620295090176.00000
0.85044 0.34338 -0.34515 -271506338547723941189403394100990836736.00000
0.85772 0.37380 -0.32343 -271506358830133544841073818048242122752.00000
0.82758 0.38631 -0.33547 -278178541422989212950417201620295090176.00000
0.83702 0.38946 -0.31300 -276844121130345762249884864063685525504.00000
0.81754 0.43745 -0.33557 -278162984814823212119202034078558715904.00000
0.82604 0.44040 -0.31256 -271501288227732631923467831235420618752.00000
0.83091 0.50652 -0.32375 -254153702728910150906524899315988561920.00000
0.94173 -0.32202 -0.33744 -291512440885345064907165211982737440768.00000
0.97428 -0.30304 -0.32053 -288833235988750697502513899824111157248.00000
0.96082 -0.26751 -0.34392 -295515762610504227963773496494319992832.00000
0.99469 -0.27915 -0.32933 -287504007992965781629610092763830812672.00000
0.95389 -0.20323 -0.33609 -290204083489042306603127646644030406656.00000
1.00828 -0.21873 -0.33288 -282197480603543187793251925515367874560.00000
0.91742 -0.10705 -0.31131 -288874794646028579775212567741996204032.00000
0.92976 -0.10843 -0.28776 -282197440038723980489911077620865302528.00000
0.92523 -0.08040 -0.31497 -284871472920869416718604283230413651968.00000
0.94409 -0.05384 -0.29397 -282192308589094256617293818966289940480.00000
0.93765 0.00293 -0.32092 -288864369487492302816614658854835191808.00000
0.98462 -0.02759 -0.31480 -283526769446556914621167004417402077184.00000
0.95529 0.03177 -0.33103 -291538463216866550000319136306137399296.00000
1.04771 0.06737 -0.34797 -280842230276236786827194194131687571456.00000
0.93288 0.08734 -0.31902 -284866260341601278239305328786833145856.00000
0.99317 0.15656 -0.35521 -291538463216866550000319136306137399296.00000
1.06344 0.20404 -0.35979 -283521536584879172490197626026570285056.00000
0.99876 0.25364 -0.36295 -279518214859720009433589341514987732992.00000
1.02685 0.22794 -0.34192 -283526728881737707317826156522899505152.00000
1.00929 0.32421 -0.37340 -278183814849486162384727427905629454336.00000
1.04132 0.30061 -0.35325 -286200822611111954501530633974201712640.00000
1.01281 0.36021 -0.37805 -283511172273571706486610988981163130880.00000
1.00285 0.38725 -0.33970 -276859819715378988642792999236180901888.00000
0.92570 0.38108 -0.33203 -276838969398306434725597181461858877440.00000
0.93336 0.41505 -0.30726 -267497966502573468866859546723838066688.00000
0.87590 0.44385 -0.31139 -272861771416716775020494941009932713984.00000
0.92975 0.44575 -0.30830 -274164936516160998496903975852310528000.00000
0.84513 0.48302 -0.29950 -262191581090018100592194347106134130688.00000
0.83817 0.50893 -0.29898 -246178375319019862972442904848809066496.00000
1.07478 -0.16822 -0.32830 -279497465954695473774745643476922138624.00000
