# .PCD v0.7 - Point Cloud Data file format
VERSION 0.7
FIELDS x y z rgb
SIZE 4 4 4 4
TYPE F F F F
COUNT 1 1 1 1
WIDTH 659
HEIGHT 1
VIEWPOINT 0 0 0 1 0 0 0
POINTS 659
DATA ascii
0.36561 -0.08578 -0.31585 -292867792624699484131575063102674173952.00000
0.36427 -0.06738 -0.30309 -294207466061430280614747202997366816768.00000
0.36908 -0.06864 -0.30124 -295547078650932266142908071050305601536.00000
0.36689 -0.06141 -0.31115 -291554202366718983696568119373135347712.00000
0.37205 -0.05442 -0.30752 -291554202366718983696568119373135347712.00000
0.36829 -0.04608 -0.31192 -288901019801646101385070731537909022720.00000
0.37578 -0.04018 -0.31772 -294233488392951765707901127320766775296.00000
0.37410 -0.03283 -0.33188 -286226844942633439594684558297601671168.00000
0.37495 -0.02485 -0.33383 -288895705810329944647419657358072086528.00000
0.37308 -0.01604 -0.32503 -292898986970669900400687093975152066560.00000
0.37900 -0.00842 -0.32494 -292898986970669900400687093975152066560.00000
0.36923 0.00043 -0.30801 -295573019852815336629380299584700416000.00000
0.37583 0.00802 -0.31206 -295567868120776009105092616982873767936.00000
0.35946 0.01511 -0.26831 -295557483527058939449835555990215327744.00000
0.36593 0.02242 -0.27471 -294223083516825092400973642380857049088.00000
0.35896 0.03553 -0.26807 -291538605193733775562012103936896401408.00000
0.36575 0.02951 -0.27461 -287550900923969424291630258808804081664.00000
0.36566 0.05280 -0.29811 -300879547242237930465738466833163354112.00000
0.37172 0.05410 -0.30110 -296881438096346905888429136765161308160.00000
0.36491 0.06007 -0.29688 -299555572390540360375474462110966087680.00000
0.36403 0.06724 -0.29538 -290219741509256325692694933922023211008.00000
0.36105 0.07277 -0.28534 -288885300934203271340492172418162360320.00000
0.36559 0.08157 -0.28590 -287550860359150216988289410914301509632.00000
0.35782 0.08528 -0.27729 -290219741509256325692694933922023211008.00000
0.35652 0.09170 -0.27493 -290219741509256325692694933922023211008.00000
0.35946 0.09938 -0.27062 -291554182084309380044897695425884061696.00000
0.37473 -0.09717 -0.31240 -292878238065645364741843395937086472192.00000
0.37977 -0.09883 -0.30984 -298200342345643563061087154674537070592.00000
0.37349 -0.07801 -0.30041 -292878197500826157438502548042583900160.00000
0.38037 -0.07234 -0.30189 -291543756925773103086299786538723049472.00000
0.37715 -0.05551 -0.30569 -291548949222631637913928317035052269568.00000
0.38353 -0.06607 -0.31028 -292878156936006950135161700148081328128.00000
0.38110 -0.04105 -0.31600 -295567868120776009105092616982873767936.00000
0.38667 -0.05064 -0.31650 -299550319246453014592834659772883009536.00000
0.39056 -0.02765 -0.34724 -291564546395616846048484332471291215872.00000
0.39384 -0.03641 -0.33757 -295567847838366405453422193035622481920.00000
0.39741 -0.01944 -0.34720 -294233447828132558404560279426264203264.00000
0.39642 -0.01017 -0.34299 -296902349260648270760636226381237190656.00000
0.38523 0.00791 -0.32523 -284892363802761177939140948899238248448.00000
0.39528 -0.00108 -0.33858 -294233468110542162056230703373515489280.00000
0.37752 0.01582 -0.29751 -275551320342209004777062466266714865664.00000
0.38809 0.02455 -0.31432 -274216879767155950424859704762854014976.00000
0.37569 0.03871 -0.29277 -295557503809468543101505979937466613760.00000
0.38604 0.04072 -0.30889 -298236728988472514157827716043344183296.00000
0.38003 0.04814 -0.30970 -295552270947790800970536601546634821632.00000
0.37931 0.05603 -0.30860 -292878197500826157438502548042583900160.00000
0.37600 0.06249 -0.29825 -296891944384521597453708741441327464448.00000
0.38269 0.07259 -0.30376 -291554182084309380044897695425884061696.00000
0.37387 0.07736 -0.29473 -291554182084309380044897695425884061696.00000
0.38136 0.08879 -0.30398 -290219741509256325692694933922023211008.00000
0.37008 0.09067 -0.28597 -291554182084309380044897695425884061696.00000
0.37568 0.10117 -0.28974 -295557503809468543101505979937466613760.00000
0.36590 0.10301 -0.27650 -290230146385382998999622418861932937216.00000
0.36419 0.10939 -0.27349 -286237270101169716553282467184762683392.00000
0.38545 -0.11078 -0.31298 -295520975189772366443072450937900498944.00000
0.38727 -0.09344 -0.31160 -303537982951398158559875657006472757248.00000
0.39173 -0.10386 -0.30946 -296865780076132886798861849487168503808.00000
0.38646 -0.08342 -0.30554 -300869101801292049855470133998751055872.00000
0.39397 -0.07746 -0.30692 -302203542376345104207672895502611906560.00000
0.39539 -0.06260 -0.32701 -302208754955613242686971849946192412672.00000
0.39763 -0.07087 -0.31578 -304872423526451212912078418510333607936.00000
0.39703 -0.05433 -0.33016 -302213967534881381166270804389772918784.00000
0.40297 -0.05545 -0.32783 -303537982951398158559875657006472757248.00000
0.40153 -0.03792 -0.34114 -298247113582189583813084777036002623488.00000
0.41080 -0.03029 -0.34695 -290250854725588327355125269005495959552.00000
0.40255 -0.01053 -0.34108 -294233468110542162056230703373515489280.00000
0.40990 -0.02052 -0.34310 -294243771574620817104806068577168785408.00000
0.40307 -0.00144 -0.34224 -302240131843270091821117696343931879424.00000
0.40972 0.00767 -0.34100 -307572559869756548840607244232287059968.00000
0.39682 0.02521 -0.32236 -298247214994237602071436896772259053568.00000
0.40290 0.01664 -0.32035 -308891382989414791406583566352657678336.00000
0.40092 0.03401 -0.31527 -311544646684126088324762649976889147392.00000
0.40204 0.04312 -0.31958 -308891362707005187754913142405406392320.00000
0.40299 0.05241 -0.32364 -306238119294703494488404482728426209280.00000
0.40208 0.06116 -0.32233 -300910741588208346734850497705641246720.00000
0.39357 0.06797 -0.31782 -294228255531274023576931748929934983168.00000
0.39938 0.06901 -0.31573 -298231496126794772026858337652512391168.00000
0.39721 0.08847 -0.33425 -288890452666242598864779855019989008384.00000
0.40318 0.09958 -0.33460 -292893733826582554618047291637068988416.00000
0.39072 0.10244 -0.31832 -292893733826582554618047291637068988416.00000
0.38738 0.10886 -0.31029 -291559293251529500265844530133208137728.00000
0.38400 0.11489 -0.30222 -290230044973334980741270299125676507136.00000
0.38432 0.12089 -0.28713 -299571189845935172161700901494456320000.00000
0.39600 -0.11445 -0.30665 -306217268977630940571208664954104184832.00000
0.40189 -0.12723 -0.30858 -302224331846188847169857441435180072960.00000
0.39808 -0.09675 -0.30586 -296876184952259560105789334427078230016.00000
0.40260 -0.10741 -0.30307 -296886569545976629761046395419736670208.00000
0.39723 -0.08648 -0.30015 -299545066102365668810194857434799931392.00000
0.40520 -0.08040 -0.30137 -298210625527312614457992095930939080704.00000
0.40516 -0.07342 -0.31840 -299545066102365668810194857434799931392.00000
0.40903 -0.06621 -0.32746 -303548387827524831866803141946382483456.00000
0.41091 -0.05756 -0.33080 -300879506677418723162397618938660782080.00000
0.41720 -0.05875 -0.32808 -302213947252471777514600380442521632768.00000
0.41406 -0.03965 -0.33650 -302245182163261401087053259209502097408.00000
0.42189 -0.03117 -0.33630 -303558772421241901522060202939040923648.00000
0.40974 -0.01043 -0.32086 -304898445857972698005232342833733566464.00000
0.41900 -0.02076 -0.32735 -302224331846188847169857441435180072960.00000
0.41032 -0.00138 -0.32204 -306238099012293890836734058781174923264.00000
0.41521 0.00771 -0.31557 -311555010995433554328349287022296301568.00000
0.40905 0.01676 -0.31827 -311555031277843157980019710969547587584.00000
0.41348 0.02586 -0.31125 -315537502685929767119432177706808115200.00000
0.41317 0.03491 -0.31097 -312868621535823658415026654699086413824.00000
0.41439 0.04436 -0.31517 -314218679566271524553455855586437496832.00000
0.40817 0.06209 -0.32010 -300905549291349811907221967209312026624.00000
0.41362 0.05340 -0.31415 -310230975296507173283074010458345177088.00000
0.40533 0.07007 -0.31348 -299565916419438222727390675209121955840.00000
0.41173 0.08075 -0.31385 -299565896137028619075720251261870669824.00000
0.40747 0.09986 -0.32660 -296897014986922510371314728254148968448.00000
0.41553 0.09267 -0.32669 -296897014986922510371314728254148968448.00000
0.40162 0.11498 -0.31496 -296897014986922510371314728254148968448.00000
0.41149 0.10995 -0.32062 -295562554129459852367441542803036831744.00000
0.39932 0.12280 -0.31134 -288900816977550064868366492065396162560.00000
0.40412 0.13397 -0.30930 -275551259494980193822051194424961007616.00000
0.39971 0.13962 -0.30012 -288895665245510737344078809463569514496.00000
0.40979 -0.14295 -0.31584 -302213947252471777514600380442521632768.00000
0.41539 -0.14509 -0.31145 -278204421777643472481878158312936046592.00000
0.40735 -0.12922 -0.30472 -299545066102365668810194857434799931392.00000
0.40879 -0.12014 -0.30487 -298210625527312614457992095930939080704.00000
0.40816 -0.10923 -0.29958 -298210625527312614457992095930939080704.00000
0.41698 -0.10355 -0.30095 -294202172352523727528766552764781166592.00000
0.41098 -0.08190 -0.29832 -288879946378067907299500250343822852096.00000
0.41799 -0.09418 -0.30060 -287529989759668059419423169192728199168.00000
0.42360 -0.07003 -0.32717 -300889911553545396469325103878570508288.00000
0.42764 -0.08034 -0.31995 -295546997521293851536226375261300457472.00000
0.43014 -0.06314 -0.34234 -303558792703651505173730626886292209664.00000
0.43908 -0.05471 -0.34244 -306238078729884287185063634833923637248.00000
0.42860 -0.03192 -0.33358 -307551689270274391271741002510713749504.00000
0.43546 -0.03269 -0.33065 -308886109562917841972273340067323314176.00000
0.42819 -0.02104 -0.31172 -307546476691006252792442048067133243392.00000
0.42713 -0.01130 -0.30844 -306212036115953198440239286563272392704.00000
0.41938 -0.00150 -0.30747 -318222001291430687610064140098020048896.00000
0.42628 0.00765 -0.30573 -315542694982788301947060708203137335296.00000
0.41803 0.02595 -0.30414 -311534180960770604062823893195225563136.00000
0.42454 0.01696 -0.30151 -312868641818233262066697078646337699840.00000
0.41951 0.03537 -0.30856 -312858216659696985108099169759176687616.00000
0.42733 0.04565 -0.31004 -316871943260982821471634939210668965888.00000
0.41709 0.06260 -0.30547 -306227653571348010226465725946762625024.00000
0.42645 0.05502 -0.30895 -315547907562056440426359662646717841408.00000
0.41583 0.07145 -0.30372 -298236627576424495899475596307087753216.00000
0.42209 0.07257 -0.30096 -306222400427260664443825923608679546880.00000
0.41425 0.09929 -0.30583 -296902187001371441547272834803226902528.00000
0.42038 0.10084 -0.30278 -298221030403439287764919580870848806912.00000
0.41390 0.10890 -0.30751 -298236627576424495899475596307087753216.00000
0.41938 0.12035 -0.30561 -296897014986922510371314728254148968448.00000
0.41166 0.13772 -0.31099 -292893774391401761921388139531571560448.00000
0.42051 0.13176 -0.31169 -295562655541507870625793662539293261824.00000
0.40923 0.15674 -0.31208 -296891964666931201105379165388578750464.00000
0.42033 0.15348 -0.31847 -299560825534627706158114264449049165824.00000
0.41950 0.17570 -0.32478 -294223042952005885097632794486354477056.00000
0.42706 -0.16157 -0.30694 -302234777287134727780125774269592371200.00000
0.42915 -0.15199 -0.30776 -302234777287134727780125774269592371200.00000
0.42285 -0.13778 -0.30737 -298226242982707426244218535314429313024.00000
0.43281 -0.13247 -0.30882 -296897014986922510371314728254148968448.00000
0.42374 -0.11662 -0.30237 -296886589828386233412716819366987956224.00000
0.43200 -0.12052 -0.30349 -296897014986922510371314728254148968448.00000
0.43355 -0.09211 -0.31747 -304888122111484439304986553682828984320.00000
0.44167 -0.10590 -0.31986 -304877717235357765998059068742919258112.00000
0.45080 -0.08929 -0.33550 -296881438096346905888429136765161308160.00000
0.45375 -0.07955 -0.33987 -299560703840170084248091720765541449728.00000
0.44909 -0.06811 -0.34772 -299565896137028619075720251261870669824.00000
0.44874 -0.05689 -0.34505 -303569197579778178480658111826201935872.00000
0.44564 -0.04494 -0.33620 -312889451570486608680552048526157152256.00000
0.45466 -0.03560 -0.33534 -306217268977630940571208664954104184832.00000
0.43489 -0.02162 -0.30879 -308886129845327445623943764014574600192.00000
0.44280 -0.01240 -0.30735 -304893273843523766829274236284655632384.00000
0.43094 0.00764 -0.29830 -310210206109073033972559888473028296704.00000
0.44186 0.00753 -0.30468 -304893294125933370480944660231906918400.00000
0.43102 0.02656 -0.29884 -316872024390621236078316634999674109952.00000
0.43773 0.02687 -0.29588 -310215418688341172451858842916608802816.00000
0.43263 0.03634 -0.30315 -318206424400855083127178548609032388608.00000
0.43941 0.03684 -0.30014 -310215378123521965148517995022106230784.00000
0.43986 0.05672 -0.30292 -307551689270274391271741002510713749504.00000
0.43860 0.06630 -0.30136 -306212036115953198440239286563272392704.00000
0.42683 0.08269 -0.29578 -306217248695221336919538241006852898816.00000
0.43502 0.07488 -0.29481 -307551709552683994923411426457965035520.00000
0.42469 0.10121 -0.29486 -298221050685848891416590004818100092928.00000
0.43097 0.10280 -0.29143 -300884759821506068945037421276743860224.00000
0.42551 0.12219 -0.30208 -296897055551741717674655576148651540480.00000
0.43248 0.11407 -0.29732 -300884759821506068945037421276743860224.00000
0.42767 0.14564 -0.31385 -295562655541507870625793662539293261824.00000
0.43731 0.13941 -0.31432 -295562635259098266974123238592041975808.00000
0.42639 0.15569 -0.31434 -298231516409204375678528761599763677184.00000
0.43321 0.17038 -0.31552 -300900336712081673427923012765731520512.00000
0.42543 0.17810 -0.32022 -296897055551741717674655576148651540480.00000
0.44423 -0.18535 -0.31302 -298236627576424495899475596307087753216.00000
0.43534 -0.16672 -0.30753 -294228133836816401666909205246427267072.00000
0.44117 -0.16900 -0.30180 -298231455561975564723517489758009819136.00000
0.43706 -0.14445 -0.30340 -291548827528174016003905773351544553472.00000
0.44774 -0.13902 -0.30458 -290214386953120961651703011847683702784.00000
0.44312 -0.12668 -0.31002 -296886589828386233412716819366987956224.00000
0.45377 -0.12037 -0.31091 -300879506677418723162397618938660782080.00000
0.45096 -0.10963 -0.32123 -296871073785039439884842499719754153984.00000
0.46164 -0.10233 -0.32174 -300879547242237930465738466833163354112.00000
0.45795 -0.09098 -0.33122 -299550319246453014592834659772883009536.00000
0.47151 -0.08416 -0.33732 -312889471852896212332222472473408438272.00000
0.46648 -0.06040 -0.34346 -300889911553545396469325103878570508288.00000
0.47457 -0.07364 -0.34155 -315558353003002321036627995481130139648.00000
0.46775 -0.03786 -0.34339 -304882848684987489870676327397494620160.00000
0.47565 -0.03875 -0.33927 -300879587807057137769079314727665926144.00000
0.47435 -0.02694 -0.33572 -304888101829074835653316129735577698304.00000
0.46995 -0.01495 -0.32622 -302234858416773142386807470058597515264.00000
0.45119 0.00745 -0.30622 -302234858416773142386807470058597515264.00000
0.45846 0.00740 -0.30267 -295578252714493078760349677975532208128.00000
0.44898 0.02765 -0.30193 -302219200396559123297240182780604710912.00000
0.45628 0.01771 -0.29838 -302234797569544331431796198216843657216.00000
0.46236 0.05097 -0.33147 -303558792703651505173730626886292209664.00000
0.46823 0.04025 -0.32309 -299565896137028619075720251261870669824.00000
0.46120 0.06171 -0.33012 -300889891271135792817654679931319222272.00000
0.47003 0.07438 -0.32988 -288890371536604184258098159230983864320.00000
0.44860 0.08948 -0.30791 -302213967534881381166270804389772918784.00000
0.46320 0.09440 -0.31938 -292893814956220969224728987426074132480.00000
0.45086 0.11252 -0.31705 -296881478661166113191769984659663880192.00000
0.46069 0.10449 -0.31628 -294233468110542162056230703373515489280.00000
0.45482 0.13826 -0.33119 -290224872958886049565312192576598573056.00000
0.46544 0.13070 -0.33094 -288900776412730857565025644170893590528.00000
0.44499 0.15413 -0.31589 -294228174401635608970250053140929839104.00000
0.45684 0.16088 -0.32223 -294222982104777074142621522644600619008.00000
0.44183 0.17524 -0.31622 -302229564707866589300826819826011865088.00000
0.45528 0.17198 -0.32251 -296876266081897974712471030216083374080.00000
0.44036 0.19887 -0.32149 -306227552159299991968113606210506194944.00000
0.44650 0.20143 -0.31578 -300874253533331377379757816600577703936.00000
0.45963 -0.19877 -0.32677 -291564404418749620486791364840532213760.00000
0.46938 -0.20525 -0.32678 -302229544425456985649156395878760579072.00000
0.45283 -0.17757 -0.30795 -294228133836816401666909205246427267072.00000
0.46161 -0.16960 -0.30283 -296897014986922510371314728254148968448.00000
0.45407 -0.14118 -0.29916 -299555470978492342117122342374709657600.00000
0.46338 -0.14584 -0.29910 -299555470978492342117122342374709657600.00000
0.45881 -0.13309 -0.30547 -302213947252471777514600380442521632768.00000
0.47025 -0.12659 -0.30601 -298210625527312614457992095930939080704.00000
0.46770 -0.11548 -0.31726 -299545106667184876113535705329302503424.00000
0.47483 -0.11748 -0.31186 -303548387827524831866803141946382483456.00000
0.47258 -0.09444 -0.32182 -303548387827524831866803141946382483456.00000
0.48698 -0.08746 -0.32736 -304882808120168282567335479502992048128.00000
0.48243 -0.07513 -0.33681 -307551689270274391271741002510713749504.00000
0.49350 -0.06545 -0.33572 -304887959852207610091623162104818696192.00000
0.48369 -0.03965 -0.33487 -300884800386325276248378269171246432256.00000
0.49286 -0.05295 -0.33312 -308880937548468910796315233518245380096.00000
0.48238 -0.02763 -0.33143 -302219281526197537903921878569609854976.00000
0.48887 -0.01629 -0.32315 -306217350107269355177890360743109328896.00000
0.47317 -0.00378 -0.31285 -292893733826582554618047291637068988416.00000
0.48686 -0.00445 -0.31911 -303564025565329247304700005277124001792.00000
0.47382 0.02936 -0.31426 -296907419863049183678242213194058694656.00000
0.48475 0.01858 -0.31519 -300900336712081673427923012765731520512.00000
0.48385 0.05379 -0.33466 -295572979287996129326039451690197843968.00000
0.49312 0.04281 -0.33113 -298231455561975564723517489758009819136.00000
0.48250 0.06525 -0.33316 -290235216987783911917228405674754441216.00000
0.49200 0.07879 -0.33223 -292893733826582554618047291637068988416.00000
0.47871 0.08762 -0.32877 -279554581220139356878659478936543559680.00000
0.48976 0.09023 -0.32970 -292893774391401761921388139531571560448.00000
0.47629 0.12256 -0.33024 -290230085538154188044611147020179079168.00000
0.48731 0.11381 -0.32902 -291548969505041241565598740982303555584.00000
0.47202 0.14458 -0.32724 -296881377249118094933417864923407450112.00000
0.48341 0.13673 -0.32659 -288885138674926442127128780840152072192.00000
0.46952 0.16809 -0.32868 -295536633209986385532639738215893303296.00000
0.48132 0.16106 -0.32850 -291548827528174016003905773351544553472.00000
0.46786 0.17970 -0.32895 -295526248616269315877382677223234863104.00000
0.48133 0.18796 -0.33550 -282197480603543187793251925515367874560.00000
0.46378 0.20257 -0.32867 -286179891164400985977653120410874544128.00000
0.46790 0.21647 -0.32154 -295531380065899039749999935877810225152.00000
0.48019 -0.22792 -0.33263 -304893212996294955874262964442901774336.00000
0.49419 -0.22351 -0.33345 -302213926970062173862929956495270346752.00000
0.48254 -0.20051 -0.32776 -303558731856422694218719355044538351616.00000
0.49223 -0.19141 -0.32133 -299550258399224203637823387931129151488.00000
0.47056 -0.16139 -0.29760 -303553519277154555739420400600957845504.00000
0.48302 -0.15564 -0.29803 -299545005255136857855183585593046073344.00000
0.48039 -0.13093 -0.30593 -299545025537546461506854009540297359360.00000
0.48540 -0.14445 -0.29901 -307546436126187045489101200172630671360.00000
0.48203 -0.11951 -0.30614 -304877615823309747739706949006662828032.00000
0.49413 -0.11178 -0.30581 -307546476691006252792442048067133243392.00000
0.49090 -0.09971 -0.31703 -303548367545115228215132717999131197440.00000
0.50287 -0.09083 -0.31611 -303548367545115228215132717999131197440.00000
0.49851 -0.07815 -0.32638 -300884638127048447035014877593236144128.00000
0.51018 -0.06817 -0.32476 -300884698974277257990026149434990002176.00000
0.50117 -0.05410 -0.32796 -307546476691006252792442048067133243392.00000
0.51219 -0.04327 -0.32555 -307525687221162509830257502134565076992.00000
0.50219 -0.02965 -0.32765 -303538043798626969514886928848226615296.00000
0.51242 -0.01811 -0.32438 -303548448674753642821814413788136341504.00000
0.49893 0.00700 -0.32081 -302224331846188847169857441435180072960.00000
0.51012 -0.00545 -0.32023 -298231516409204375678528761599763677184.00000
0.50223 0.03130 -0.32682 -299555470978492342117122342374709657600.00000
0.51820 0.01959 -0.33325 -282228614102284793107352684546091909120.00000
0.50726 0.05685 -0.33678 -302224352128598450821527865382431358976.00000
0.51605 0.05772 -0.33137 -300889850706316585514313832036816650240.00000
0.50569 0.06909 -0.33513 -302224352128598450821527865382431358976.00000
0.51587 0.08356 -0.33339 -298205514360092494237045261223615004672.00000
0.50186 0.10590 -0.33311 -299550400376091429199516355561888153600.00000
0.51327 0.09574 -0.33063 -296871073785039439884842499719754153984.00000
0.49862 0.11726 -0.32949 -298215959801038374847313594058027302912.00000
0.50652 0.13216 -0.32540 -284887130941083435808171570508406456320.00000
0.50584 0.14516 -0.32673 -287556012091189544512577093516128157696.00000
0.50479 0.15810 -0.32768 -296876205234669163757459758374329516032.00000
0.49922 0.17112 -0.34131 -292893713544172950966376867689817702400.00000
0.50141 0.18702 -0.34871 -290209336633129652385767448982113484800.00000
0.50350 0.20347 -0.35629 -288864511464359528378307626485594193920.00000
0.51553 0.20984 -0.35625 -283521536584879172490197626026570285056.00000
0.49502 0.22579 -0.34900 -292867772342289880479904639155422887936.00000
0.49945 0.24131 -0.34061 -292872903791919604352521897809998249984.00000
0.48184 0.24216 -0.33334 -290188466033647494816901207260540174336.00000
0.50644 -0.24851 -0.33920 -302213845840423759256248260706265202688.00000
0.51305 -0.25110 -0.32957 -299550197551995392682812116089375293440.00000
0.50430 -0.21406 -0.32633 -288879946378067907299500250343822852096.00000
0.51462 -0.20440 -0.31912 -292872842944690793397510625968244391936.00000
0.49054 -0.17207 -0.29562 -299545045819956065158524433487548645376.00000
0.50408 -0.16611 -0.29553 -298210625527312614457992095930939080704.00000
0.49960 -0.15201 -0.30405 -298205392665634872327022717540107288576.00000
0.51314 -0.14490 -0.30361 -302203542376345104207672895502611906560.00000
0.50373 -0.12798 -0.30515 -299539833240687926679225479043968139264.00000
0.51687 -0.11984 -0.30425 -302208714390794035383631002051689840640.00000
0.51818 -0.10710 -0.30404 -306217248695221336919538241006852898816.00000
0.52295 -0.09595 -0.30921 -300879486395009119510727194991409496064.00000
0.51868 -0.06956 -0.31875 -296886569545976629761046395419736670208.00000
0.52731 -0.08433 -0.31395 -300879486395009119510727194991409496064.00000
0.52191 -0.05749 -0.32243 -303543195530666297039174611450053263360.00000
0.53362 -0.04610 -0.31932 -296881478661166113191769984659663880192.00000
0.52493 -0.01908 -0.32448 -294222982104777074142621522644600619008.00000
0.53605 -0.03321 -0.32203 -294217749243099332011652144253768826880.00000
0.52699 0.00675 -0.32707 -294228214966454816273590901035432411136.00000
0.53934 -0.00679 -0.32579 -300895144415223138600294482269402300416.00000
0.53086 0.03315 -0.33338 -303558772421241901522060202939040923648.00000
0.54044 0.02011 -0.32728 -300869142366111257158810981893253627904.00000
0.52878 0.05937 -0.33149 -303543114401027882432492915661048119296.00000
0.53933 0.04700 -0.32648 -302213866122833362907918684653516488704.00000
0.52470 0.08490 -0.32742 -303532871784178038338928822299148681216.00000
0.53605 0.07339 -0.32342 -299550258399224203637823387931129151488.00000
0.53466 0.10024 -0.32405 -286205954060741678374147892628777074688.00000
0.53523 0.11430 -0.32660 -294202192634933331180436976712032452608.00000
0.52262 0.12456 -0.32937 -295526228333859712225712253275983577088.00000
0.53533 0.12842 -0.32872 -288864430334721113771625930696589049856.00000
0.53421 0.15662 -0.33170 -295531400348308643401670359825061511168.00000
0.53300 0.17063 -0.33259 -288869541501941233992572765403913125888.00000
0.52742 0.18493 -0.34770 -290204063206632702951457222696779120640.00000
0.53012 0.20232 -0.35552 -291528180035197498603414195049735389184.00000
0.52561 0.23045 -0.35581 -291528159752787894951743771102484103168.00000
0.54102 0.22332 -0.35496 -283521536584879172490197626026570285056.00000
0.51080 0.24859 -0.33956 -292878116371187742831820852253578756096.00000
0.52585 0.24280 -0.33903 -288864430334721113771625930696589049856.00000
0.49906 0.25208 -0.32405 -287545586932653267553979184628967145472.00000
0.50191 0.26671 -0.31359 -282213118341347603231148788846109392896.00000
0.52894 -0.24659 -0.32953 -299545045819956065158524433487548645376.00000
0.54137 -0.25484 -0.32734 -300884638127048447035014877593236144128.00000
0.53285 -0.23356 -0.33116 -300869101801292049855470133998751055872.00000
0.54943 -0.22784 -0.33060 -296876164669849956454118910479826944000.00000
0.53477 -0.20252 -0.32615 -294202070940475709270414433028524736512.00000
0.55087 -0.19571 -0.32533 -299529428364561253372297994104058413056.00000
0.54303 -0.16174 -0.32844 -300884678691867654338355725487738716160.00000
0.55383 -0.18171 -0.32620 -299524215785293114892999039660477906944.00000
0.53574 -0.14223 -0.31514 -310199740385717549710621131691364712448.00000
0.56928 -0.15936 -0.34158 -304856785788646797474181555179592089600.00000
0.53446 -0.11297 -0.30866 -310199740385717549710621131691364712448.00000
0.54832 -0.10314 -0.30640 -315537502685929767119432177706808115200.00000
0.54005 -0.07370 -0.31134 -302219119266920708690558486991599566848.00000
0.54893 -0.07515 -0.30403 -299539833240687926679225479043968139264.00000
0.54266 -0.04712 -0.31263 -303543276660304711645856307239058407424.00000
0.55280 -0.06230 -0.30790 -299529448646970857023968418051309699072.00000
0.54725 -0.02065 -0.31755 -306206884383913870915951603961445744640.00000
0.56341 -0.03626 -0.32003 -298200220651185941151064610991029354496.00000
0.54958 0.00657 -0.32021 -304877636105719351391377372953914114048.00000
0.56260 -0.00769 -0.31794 -303543195530666297039174611450053263360.00000
0.54957 0.03403 -0.32054 -300884678691867654338355725487738716160.00000
0.56383 0.02066 -0.31944 -300869101801292049855470133998751055872.00000
0.55294 0.04828 -0.32574 -286221409256859660947010940434257018880.00000
0.56549 0.06382 -0.32316 -287555930961551129905895397727123013632.00000
0.54679 0.08886 -0.32011 -286242401550799440425899725839338045440.00000
0.55880 0.07675 -0.31529 -294212516381421589880682765862937034752.00000
0.54787 0.10330 -0.32306 -268879056619714922061037386905656754176.00000
0.54845 0.11784 -0.32557 -279549348358461614747690100545711767552.00000
0.55270 0.14932 -0.33577 -291538483499276153651989560253388685312.00000
0.56704 0.13871 -0.33253 -296881438096346905888429136765161308160.00000
0.55549 0.18189 -0.34504 -298179532593390216447232184794717618176.00000
0.57089 0.17219 -0.34244 -294207344366972658704724659313859100672.00000
0.55893 0.20030 -0.35311 -291522947173519756472444816658903597056.00000
0.55691 0.21544 -0.35355 -287519625448360593415836532147321044992.00000
0.55450 0.23043 -0.35363 -282192268024275049313952971071787368448.00000
0.55989 0.24826 -0.34350 -290204103771451910254798070591281692672.00000
0.53824 0.25024 -0.33723 -279533791750295613916474933003975393280.00000
0.55106 0.25793 -0.33494 -286200802328702350849860210026950426624.00000
0.52128 0.26704 -0.31996 -282213118341347603231148788846109392896.00000
0.52858 0.28759 -0.31534 -283537113475454776973083217515557945344.00000
0.54554 -0.30504 -0.30592 -299555308719215512903758950796699369472.00000
0.55094 -0.29231 -0.30843 -299550116422356978076130420300370149376.00000
0.56049 -0.26961 -0.33326 -303553458429925744784409128759203987456.00000
0.56757 -0.27224 -0.32144 -302219038137282294083876791202594422784.00000
0.55868 -0.24967 -0.32649 -299560622710531669641410024976536305664.00000
0.56283 -0.23566 -0.32812 -292914503014016693928561413622385868800.00000
0.56667 -0.22139 -0.32952 -295578171584854664153667982186527064064.00000
0.57016 -0.20685 -0.33064 -299565875854619015424049827314619383808.00000
0.57925 -0.19619 -0.33932 -299545045819956065158524433487548645376.00000
0.58785 -0.19890 -0.32873 -303569055602910952918965144195442933760.00000
0.59796 -0.15584 -0.35494 -310189335509590876403693646751454986240.00000
0.60591 -0.17498 -0.34514 -300879405265370704904045499202404352000.00000
0.59898 -0.13925 -0.35380 -307530859235611441006215608683643011072.00000
0.61593 -0.12736 -0.35014 -307530859235611441006215608683643011072.00000
0.56707 -0.09422 -0.30938 -306212036115953198440239286563272392704.00000
0.59737 -0.08745 -0.32450 -302208714390794035383631002051689840640.00000
0.57010 -0.05110 -0.30938 -306191246646109455478054740630704226304.00000
0.58583 -0.06861 -0.30949 -304882828402577886219005903450243334144.00000
0.58527 -0.02390 -0.32686 -304856806071056401125851979126843375616.00000
0.60635 -0.02571 -0.33123 -306217268977630940571208664954104184832.00000
0.58291 0.00627 -0.32336 -303532790654539623732247126510143537152.00000
0.59304 0.00620 -0.31498 -304888020699436421046634433946572554240.00000
0.57797 0.03572 -0.31754 -299545066102365668810194857434799931392.00000
0.59337 0.02141 -0.31542 -299545066102365668810194857434799931392.00000
0.58178 0.05099 -0.32280 -300879506677418723162397618938660782080.00000
0.59184 0.05173 -0.31440 -306206864101504267264281180014194458624.00000
0.57462 0.09433 -0.31673 -299545066102365668810194857434799931392.00000
0.59451 0.09868 -0.32042 -304861978085505332301810085675921309696.00000
0.57639 0.12529 -0.32202 -294207303802153451401383811419356528640.00000
0.59113 0.12922 -0.31943 -300874273815740981031428240547828989952.00000
0.58653 0.16162 -0.33905 -290214386953120961651703011847683702784.00000
0.60821 0.15270 -0.34189 -292872842944690793397510625968244391936.00000
0.58997 0.19722 -0.34872 -286216419784097162636086649410440658944.00000
0.60700 0.18675 -0.34512 -284887070093854624853160298666652598272.00000
0.58577 0.22955 -0.34957 -286205994625560885677488740523279646720.00000
0.61001 0.22464 -0.35463 -282218249790977327103766047500684754944.00000
0.58298 0.24544 -0.34943 -288874875775666994381894263531001348096.00000
0.58814 0.26417 -0.33775 -286205994625560885677488740523279646720.00000
0.56030 0.28023 -0.33081 -283526668034508896362814884681145647104.00000
0.57803 0.27410 -0.32875 -282202632335582515317539608117194522624.00000
0.55035 0.28851 -0.32145 -284861108609561950715017646185006497792.00000
0.55734 0.29129 -0.31020 -283537032345816362366401521726552801280.00000
0.53543 0.30863 -0.30979 -283531880613777034842113839124726153216.00000
0.54721 0.31750 -0.30577 -279533751185476406613134085109472821248.00000
0.55793 -0.31481 -0.30178 -295546835262017022322862983683290169344.00000
0.56366 -0.30178 -0.30437 -300884597562229239731674029698733572096.00000
0.56919 -0.28845 -0.30686 -299550177269585789031141692142124007424.00000
0.58265 -0.29793 -0.30232 -300884638127048447035014877593236144128.00000
0.59814 -0.25813 -0.33003 -300863848657204704072830331660667977728.00000
0.60094 -0.27608 -0.31540 -299550217834404996334482540036626579456.00000
0.59543 -0.23708 -0.32309 -303537922104169347604864385164718899200.00000
0.62224 -0.23481 -0.32865 -303532709524901209125565430721138393088.00000
0.61860 -0.21334 -0.32144 -302213866122833362907918684653516488704.00000
0.62916 -0.20128 -0.33015 -304877514411261729481354829270406397952.00000
0.63873 -0.17166 -0.35845 -298215756976942338330609354585514442752.00000
0.64707 -0.19254 -0.34698 -300879384982961101252375075255153065984.00000
0.63977 -0.15344 -0.35721 -302219078702101501387217639097096994816.00000
0.65846 -0.14047 -0.35220 -300879486395009119510727194991409496064.00000
0.62624 -0.11206 -0.33785 -300879486395009119510727194991409496064.00000
0.64293 -0.09837 -0.33218 -299545066102365668810194857434799931392.00000
0.62260 -0.06007 -0.32973 -306191246646109455478054740630704226304.00000
0.64853 -0.08211 -0.33679 -303532770372130020080576702562892251136.00000
0.64883 -0.02978 -0.35748 -298215838106580752937291050374519586816.00000
0.67218 -0.05037 -0.35973 -306206864101504267264281180014194458624.00000
0.62479 -0.01064 -0.33028 -292893693261763347314706443742566416384.00000
0.64984 0.00563 -0.33496 -304888020699436421046634433946572554240.00000
0.60850 0.03754 -0.31232 -298221030403439287764919580870848806912.00000
0.63102 0.02243 -0.31525 -303548367545115228215132717999131197440.00000
0.63474 0.07394 -0.34285 -296886589828386233412716819366987956224.00000
0.64815 0.05791 -0.33406 -304882808120168282567335479502992048128.00000
0.62548 0.08908 -0.33348 -294217708678280124708311296359266254848.00000
0.64522 0.11014 -0.33391 -298210564680083803502980824089185222656.00000
0.61812 0.13771 -0.32954 -300874273815740981031428240547828989952.00000
0.62830 0.13977 -0.31896 -294217688395870521056640872412014968832.00000
0.62424 0.17531 -0.34061 -292883227538407863052767686960902832128.00000
0.63483 0.16000 -0.32784 -287540354070975525423009806238135353344.00000
0.63567 0.21855 -0.35905 -288900776412730857565025644170893590528.00000
0.64570 0.22149 -0.34687 -242179840242527161710054671888530014208.00000
0.61677 0.24470 -0.34325 -283547416939533432021658582719211241472.00000
0.63601 0.23507 -0.33916 -267523786009998917443309231574725165056.00000
0.60674 0.25641 -0.33480 -286205872931103263767466196839771930624.00000
0.61536 0.25941 -0.32262 -290198830344954960820487844305947328512.00000
0.58121 0.29171 -0.31539 -279549348358461614747690100545711767552.00000
0.60681 0.29139 -0.32018 -279554581220139356878659478936543559680.00000
0.58423 0.33410 -0.32794 -282213098058937999579478364898858106880.00000
0.59840 0.34439 -0.32312 -278220201492315113481467989274436567040.00000
0.59430 0.38310 -0.32808 -278220201492315113481467989274436567040.00000
0.61863 -0.37482 -0.33122 -299550096139947374424459996353118863360.00000
0.68755 -0.42009 -0.37649 -302213744428375740997896140970008772608.00000
0.62152 -0.33282 -0.32484 -300889789859087774559302560195062792192.00000
0.66390 -0.34656 -0.34204 -300884556997410032428333181804231000064.00000
0.63793 -0.28354 -0.33026 -299544924125498443248501889804040929280.00000
0.67467 -0.30960 -0.34467 -299539752111049512072543783254962995200.00000
0.64269 -0.26647 -0.33164 -304882666143301057005642511872233046016.00000
0.67399 -0.26466 -0.33671 -299539752111049512072543783254962995200.00000
0.65944 -0.23700 -0.34253 -303548245850657606305110174315623481344.00000
0.68132 -0.22670 -0.33768 -302208633261155620776949306262684696576.00000
0.67578 -0.18512 -0.35091 -300884658409458050686685301540487430144.00000
0.68621 -0.18778 -0.33714 -296876184952259560105789334427078230016.00000
0.68763 -0.16807 -0.33623 -298210625527312614457992095930939080704.00000
0.68832 -0.14826 -0.33486 -300869101801292049855470133998751055872.00000
0.65402 -0.11839 -0.32270 -295541724094796902101916148975966093312.00000
0.67156 -0.10399 -0.31571 -303527537510452277949607324172060459008.00000
0.67969 -0.06960 -0.34442 -304882828402577886219005903450243334144.00000
0.68572 -0.08887 -0.32777 -303543114401027882432492915661048119296.00000
0.70058 -0.05391 -0.36429 -304882828402577886219005903450243334144.00000
0.71282 -0.05497 -0.35120 -302213926970062173862929956495270346752.00000
0.71022 -0.01477 -0.34769 -303558792703651505173730626886292209664.00000
0.70318 0.00513 -0.34095 -302224352128598450821527865382431358976.00000
0.67523 0.04227 -0.33822 -303543114401027882432492915661048119296.00000
0.70352 0.02463 -0.34133 -302224352128598450821527865382431358976.00000
0.68630 0.08132 -0.35052 -302208673825974828080290154157187268608.00000
0.70100 0.06342 -0.33979 -296870992655401025278160803930749009920.00000
0.67494 0.09803 -0.34021 -302208673825974828080290154157187268608.00000
0.68946 0.11947 -0.33191 -298215797541761545633950202480017014784.00000
0.65093 0.12830 -0.31882 -295552128970923575408843633915875819520.00000
0.66949 0.15148 -0.31607 -291554080672261361786545575689627631616.00000
0.67730 0.17374 -0.32534 -288890472948652202516450278967240294400.00000
0.67677 0.19321 -0.32692 -283552730930849588759309656899048177664.00000
0.65561 0.22439 -0.33412 -283537235169912398883105761199065661440.00000
0.66540 0.22725 -0.32080 -275540956030901538773475829221307711488.00000
0.64546 0.23802 -0.32643 -283526789728966518272837428364653363200.00000
0.65476 0.24092 -0.31315 -282197541450771998748263197357121732608.00000
0.62668 0.28422 -0.31638 -288859298885091389899008672042013687808.00000
0.66354 0.28797 -0.32802 -283531921178596242145454687019228725248.00000
0.63239 0.33064 -0.33026 -284871574332917434976956402966670082048.00000
0.64013 0.33354 -0.31551 -284876624652908744242891965832240300032.00000
0.62694 0.34723 -0.32859 -284871493203279020370274707177664937984.00000
0.62812 0.36609 -0.31151 -283536910651358740456378978043045085184.00000
0.61510 0.37940 -0.32471 -283537012063406758714731097779301515264.00000
0.61497 0.39718 -0.30688 -278194077748745610129961945214780178432.00000
0.74639 -0.47066 -0.37958 -303558610161965072308696811361030635520.00000
0.71433 -0.41525 -0.37165 -299544863278269632293490617962287071232.00000
0.74231 -0.40943 -0.36583 -296881235272250869371724897292648448000.00000
0.71730 -0.33991 -0.36091 -294202030375656501967073585134022164480.00000
0.75283 -0.36408 -0.36652 -302208714390794035383631002051689840640.00000
0.72198 -0.31874 -0.36137 -300874233250921773728087392653326417920.00000
0.76156 -0.31802 -0.36650 -299539833240687926679225479043968139264.00000
0.71834 -0.26847 -0.35097 -306211995551133991136898438668769820672.00000
0.74318 -0.25696 -0.34412 -303543134683437486084163339608299405312.00000
0.70363 -0.21517 -0.33170 -300874212968512170076416968706075131904.00000
0.72622 -0.20234 -0.32447 -296876144387440352802448486532575657984.00000
0.69815 -0.17053 -0.32210 -296876164669849956454118910479826944000.00000
0.69906 -0.15053 -0.32096 -300874253533331377379757816600577703936.00000
0.69916 -0.13046 -0.31934 -307530818670792233702874760789140439040.00000
0.71820 -0.11469 -0.31049 -308865218681026080751736674398498717696.00000
0.72003 -0.07556 -0.33393 -300874192686102566424746544758823845888.00000
0.72551 -0.09612 -0.31531 -306217106718354111357845273376093896704.00000
0.73427 -0.05740 -0.34559 -300884638127048447035014877593236144128.00000
0.74651 -0.05845 -0.33077 -304887919287388402788282314210316124160.00000
0.73299 0.00485 -0.34323 -298236647858834099551146020254339039232.00000
0.75345 -0.01665 -0.33546 -300889850706316585514313832036816650240.00000
0.73334 0.02547 -0.34359 -294238538712943074973836690186336993280.00000
0.75452 0.04741 -0.33651 -296876184952259560105789334427078230016.00000
0.72738 0.08666 -0.33993 -294217708678280124708311296359266254848.00000
0.75892 0.09117 -0.34140 -302198350079486569380044365006282686464.00000
0.71431 0.10451 -0.32940 -294217708678280124708311296359266254848.00000
0.73871 0.12987 -0.32686 -292909168740290933539239915495297646592.00000
0.70293 0.14167 -0.32191 -294212516381421589880682765862937034752.00000
0.72413 0.16768 -0.31772 -288885098110107234823787932945649500160.00000
0.69547 0.19960 -0.32074 -291543736643363499434629362591471763456.00000
0.71540 0.18538 -0.31220 -295541724094796902101916148975966093312.00000
0.68329 0.23466 -0.31446 -284850744298254484711431009139599343616.00000
0.70417 0.22235 -0.30691 -283511030296704480924918021350404128768.00000
0.68550 0.27841 -0.32217 -282192207177046238358941699230033510400.00000
0.70790 0.26765 -0.31520 -275520004301780966597927891710729256960.00000
0.67659 0.31608 -0.32050 -283537012063406758714731097779301515264.00000
0.69468 0.32645 -0.31308 -278188905734296678954003838665702244352.00000
0.66563 0.35230 -0.31762 -283531758919319412932091295441218437120.00000
0.68309 0.36374 -0.31011 -287504007992965781629610092763830812672.00000
0.65951 0.36983 -0.31583 -282197318344266358579888533937357586432.00000
0.66668 0.37246 -0.29920 -283516303723201430359228247635738492928.00000
0.64631 0.40380 -0.31173 -280847422573095321654822724628016791552.00000
0.66274 0.41673 -0.30413 -279518214859720009433589341514987732992.00000
0.79481 -0.48295 -0.38814 -288879804401200681737807282713063849984.00000
0.80276 -0.48551 -0.36469 -291559090427433463749140290660695277568.00000
0.78758 -0.41602 -0.37242 -296881275837070076675065745187151020032.00000
0.80164 -0.39423 -0.35063 -299539792675868719375884631149465567232.00000
0.78146 -0.35490 -0.35915 -300874192686102566424746544758823845888.00000
0.82328 -0.38139 -0.36345 -300874273815740981031428240547828989952.00000
0.78933 -0.30659 -0.35856 -307546395561367838185760352278128099328.00000
0.84973 -0.31171 -0.37316 -303543114401027882432492915661048119296.00000
0.76841 -0.24403 -0.33592 -307546395561367838185760352278128099328.00000
0.82125 -0.24236 -0.34648 -307530818670792233702874760789140439040.00000
0.73835 -0.18365 -0.30754 -307530818670792233702874760789140439040.00000
0.82124 -0.19091 -0.34213 -306196378095739179350671999285279588352.00000
0.73857 -0.11913 -0.30279 -307541223546918907009802245729050165248.00000
0.79439 -0.15704 -0.32079 -308865259245845288055077522293001289728.00000
0.77376 -0.08396 -0.32778 -307530818670792233702874760789140439040.00000
0.83431 -0.09445 -0.34578 -303553519277154555739420400600957845504.00000
0.78390 -0.04057 -0.33412 -304887959852207610091623162104818696192.00000
0.81997 -0.04366 -0.33397 -299555410131263531162111070532955799552.00000
0.78872 0.00434 -0.33726 -302208673825974828080290154157187268608.00000
0.82332 -0.01997 -0.33597 -303543114401027882432492915661048119296.00000
0.80039 0.02739 -0.34629 -304877554976080936784695677164908969984.00000
0.82437 0.05205 -0.33690 -300874233250921773728087392653326417920.00000
0.81681 0.10003 -0.36054 -302208673825974828080290154157187268608.00000
0.84744 0.07898 -0.35399 -302208673825974828080290154157187268608.00000
0.79938 0.12061 -0.34810 -295536430385890349015935498743380443136.00000
0.83004 0.15085 -0.34445 -292872842944690793397510625968244391936.00000
0.75302 0.15413 -0.31472 -295546855544426625974533407630541455360.00000
0.79938 0.19069 -0.32526 -292867731777470673176563791260920315904.00000
0.74512 0.19540 -0.31190 -288869541501941233992572765403913125888.00000
0.80065 0.21549 -0.32803 -287530010042077663071093593139979485184.00000
0.74093 0.26125 -0.31525 -271516743423850614496330879040900562944.00000
0.85688 0.32135 -0.37699 -275514893134560846376981057003405180928.00000
0.75689 0.31884 -0.33386 -274185624573956723200736402048622264320.00000
0.83942 0.34001 -0.36700 -270177130834348628968170010987961778176.00000
0.76062 0.37288 -0.34384 -276849313427204297077513394560014745600.00000
0.82984 0.42100 -0.37045 -279518214859720009433589341514987732992.00000
0.74243 0.38495 -0.33255 -282181883430557979658695910079128928256.00000
0.75783 0.42069 -0.32238 -275514933699380053680321904897907752960.00000
0.69858 0.42366 -0.30770 -267513543393149073349745138212825726976.00000
0.75119 0.44253 -0.32126 -268848024533021335005288747611189149696.00000
0.69600 0.47438 -0.31470 -258172540497416107491007503474804916224.00000
0.73687 0.48538 -0.31868 -250176342488043661988059267286052110336.00000
0.86172 -0.46881 -0.36970 -292877994676730120921798308570071040000.00000
0.92020 -0.47716 -0.37360 -284866199494372467284294056945079287808.00000
0.85092 -0.39746 -0.35386 -299545045819956065158524433487548645376.00000
0.90094 -0.42929 -0.35688 -291538402369637739045307864464383541248.00000
0.89769 -0.33556 -0.37659 -304861937520686124998469237781418737664.00000
0.90906 -0.33887 -0.35223 -296855253505548591581911820863751061504.00000
0.88003 -0.29615 -0.36141 -303527496945633070646266476277557886976.00000
0.89220 -0.27036 -0.33616 -296870931808172214323149532088995151872.00000
0.86245 -0.20421 -0.34237 -302213886405242966559589108600767774720.00000
0.89196 -0.24146 -0.33379 -298205372383225268675352293592856002560.00000
0.92173 -0.16729 -0.37898 -304882767555349075263994631608489476096.00000
0.96045 -0.20704 -0.37300 -302208694108384431731960578104438554624.00000
0.92430 -0.11030 -0.37805 -306238038165065079881722786939421065216.00000
0.97629 -0.11889 -0.37855 -298210605244903010806321671983687794688.00000
0.91464 -0.08041 -0.37065 -299565835289799808120708979420116811776.00000
0.95240 -0.05564 -0.36214 -299545066102365668810194857434799931392.00000
0.86276 -0.02185 -0.33494 -303543114401027882432492915661048119296.00000
0.87793 0.00352 -0.31556 -298205453512863683282033989381861146624.00000
0.85149 0.02873 -0.32732 -299539792675868719375884631149465567232.00000
0.87828 0.02944 -0.31583 -296865780076132886798861849487168503808.00000
0.91674 0.11477 -0.37248 -300874233250921773728087392653326417920.00000
0.93618 0.08835 -0.35241 -295536511515528763622617194532385587200.00000
0.92688 0.14517 -0.38035 -299539792675868719375884631149465567232.00000
0.93208 0.17402 -0.35289 -298189775210240060540796278156617056256.00000
0.86490 0.21160 -0.34310 -296876286364307578364141454163334660096.00000
0.90464 0.19512 -0.33721 -295526167486630901270700981434229719040.00000
0.93950 0.29893 -0.39832 -280873485469436014051317496845919322112.00000
0.94940 0.26951 -0.36904 -284855977159932226842400387530431135744.00000
0.92308 0.35386 -0.39269 -276854505724062831905141925056343965696.00000
0.95504 0.33521 -0.37750 -280852655434773063785792103018848583680.00000
0.90319 0.37422 -0.38203 -274175219697830049893808917108712538112.00000
0.91283 0.40850 -0.35939 -275494063099897896111455663176334442496.00000
0.87629 0.45155 -0.37393 -282166265975163167872469470695638695936.00000
0.88614 0.45492 -0.34895 -274170108530609929672862082401388462080.00000
0.83459 0.45101 -0.34791 -276844121130345762249884864063685525504.00000
0.83736 0.48037 -0.32402 -263505090218360186420519595046667812864.00000
0.76585 0.48077 -0.30991 -250176342488043661988059267286052110336.00000
0.98674 -0.41371 -0.37011 -287524716333171109985112942907393835008.00000
1.02428 -0.39639 -0.35279 -286174739432361658453365437809047896064.00000
0.94173 -0.32202 -0.33744 -295520894060133951836390755148895354880.00000
0.95270 -0.32501 -0.31119 -287509159725005109153897775365657460736.00000
0.97868 -0.24271 -0.35227 -292867650647832258569882095471915171840.00000
0.99469 -0.27915 -0.32933 -282181863148148376007025486131877642240.00000
1.01762 -0.22339 -0.37295 -292867650647832258569882095471915171840.00000
1.03285 -0.19455 -0.38004 -291527997493511065738380379524473815040.00000
1.05768 -0.13280 -0.39161 -291538422652047342696978288411634827264.00000
1.08624 -0.17203 -0.37114 -287519605165950989764166108200069758976.00000
1.05006 -0.06458 -0.38558 -286200700916654332591508090290693996544.00000
1.08987 -0.06785 -0.37027 -286190296040527659284580605350784270336.00000
0.99014 -0.02817 -0.35099 -290198870909774168123828692200449900544.00000
1.04947 0.00179 -0.34854 -283510989731885273621577173455901556736.00000
0.97354 0.03236 -0.34142 -291528058340739876693391651366227673088.00000
1.07094 0.06910 -0.36012 -282171397424792891745086729350214057984.00000
0.98127 0.12349 -0.34740 -290198749215316546213806148516942184448.00000
1.05977 0.13526 -0.35558 -286190275758118055632910181403532984320.00000
0.98320 0.18547 -0.35073 -284866240059191674587634904839581859840.00000
1.05085 0.16724 -0.35190 -295546977238884247884555951314049171456.00000
0.97778 0.24653 -0.35079 -276870143461867247343038788387085484032.00000
1.01204 0.25630 -0.33572 -283542386901951726407393443800892309504.00000
0.98671 0.31448 -0.36018 -274206576303077295376284339559200718848.00000
0.99917 0.31755 -0.33281 -284855977159932226842400387530431135744.00000
0.94707 0.36075 -0.34193 -282187136574645325441335712417212006400.00000
0.97926 0.34169 -0.32437 -286180093988497022494357359883387404288.00000
0.90355 0.39948 -0.32172 -276828544239770157766999272574697865216.00000
0.93609 0.38423 -0.30596 -268827235063177592043104201678620983296.00000
